ply
format ascii 1.0
comment Created by Open Asset Import Library - http://assimp.sf.net (v4.1.0)
element vertex 1203
property float x
property float y
property float z
element face 0
property list uchar int vertex_index
end_header
-19.18979263305664 -10.6082649230957 0
-18.68979263305664 -10.6082649230957 0
-18.18979263305664 -10.6082649230957 0
-17.68979263305664 -10.6082649230957 0
-17.18979263305664 -10.6082649230957 0
-16.68979263305664 -10.6082649230957 0
-16.18979263305664 -10.6082649230957 0
-16.18979263305664 -10.6082649230957 0
-16.18979263305664 -10.6082649230957 1
-16.18979263305664 -10.6082649230957 2
-16.18979263305664 -10.6082649230957 3
-16.18979263305664 -10.6082649230957 4
-16.18979263305664 -10.6082649230957 5
-16.18979263305664 -10.6082649230957 6
-16.18979263305664 -10.6082649230957 7
-16.18979263305664 -10.6082649230957 8
-16.18979263305664 -10.6082649230957 9
-16.18979263305664 -10.6082649230957 10
-16.18979263305664 -10.6082649230957 11
-16.18979263305664 -10.6082649230957 12
-16.18979263305664 -10.6082649230957 13
-16.18979263305664 -10.6082649230957 14
-16.18979263305664 -10.6082649230957 15
-16.18979263305664 -10.6082649230957 16
-16.18979263305664 -10.6082649230957 17
-16.18979263305664 -10.6082649230957 18
-16.18979263305664 -10.6082649230957 19
-16.18979263305664 -10.6082649230957 20
-16.18979263305664 -10.6082649230957 21
-16.18979263305664 -10.6082649230957 22
-16.18979263305664 -10.6082649230957 23
-16.18979263305664 -10.6082649230957 24
-16.18979263305664 -10.6082649230957 25
-16.18979263305664 -10.6082649230957 26
-15.68979263305664 -10.6082649230957 28.46227073669434
-15.68979263305664 -10.6082649230957 0
-15.68979263305664 -10.6082649230957 1
-15.68979263305664 -10.6082649230957 2
-15.68979263305664 -10.6082649230957 3
-15.68979263305664 -10.6082649230957 4
-15.68979263305664 -10.6082649230957 5
-15.68979263305664 -10.6082649230957 6
-15.68979263305664 -10.6082649230957 7
-15.68979263305664 -10.6082649230957 8
-15.68979263305664 -10.6082649230957 9
-15.68979263305664 -10.6082649230957 10
-15.68979263305664 -10.6082649230957 11
-15.68979263305664 -10.6082649230957 12
-15.68979263305664 -10.6082649230957 13
-15.68979263305664 -10.6082649230957 14
-15.68979263305664 -10.6082649230957 15
-15.68979263305664 -10.6082649230957 16
-15.68979263305664 -10.6082649230957 17
-15.68979263305664 -10.6082649230957 18
-15.68979263305664 -10.6082649230957 19
-15.68979263305664 -10.6082649230957 20
-15.68979263305664 -10.6082649230957 21
-15.68979263305664 -10.6082649230957 22
-15.68979263305664 -10.6082649230957 23
-15.68979263305664 -10.6082649230957 24
-15.68979263305664 -10.6082649230957 25
-15.68979263305664 -10.6082649230957 26
-15.18979263305664 -10.6082649230957 0
-14.68979263305664 -10.6082649230957 0
-14.18979263305664 -10.6082649230957 0
-13.68979263305664 -10.6082649230957 0
-13.18979263305664 -10.6082649230957 0
-12.68979263305664 -10.6082649230957 0
-12.18979263305664 -10.6082649230957 0
-11.68979263305664 -10.6082649230957 0
-11.18979263305664 -10.6082649230957 0
-10.68979263305664 -10.6082649230957 0
-10.18979263305664 -10.6082649230957 0
-9.689792633056641 -10.6082649230957 0
-9.189792633056641 -10.6082649230957 0
-8.689792633056641 -10.6082649230957 0
-8.189792633056641 -10.6082649230957 0
-7.689792633056641 -10.6082649230957 0
-7.189792633056641 -10.6082649230957 0
-6.689792633056641 -10.6082649230957 0
-6.189792633056641 -10.6082649230957 0
-5.689792633056641 -10.6082649230957 0
-5.189792633056641 -10.6082649230957 0
-4.689792633056641 -10.6082649230957 0
-4.189792633056641 -10.6082649230957 0
-3.689792633056641 -10.6082649230957 0
-3.189792633056641 -10.6082649230957 0
-2.689792633056641 -10.6082649230957 0
-2.189792633056641 -10.6082649230957 0
-1.689792633056641 -10.6082649230957 0
-1.189792633056641 -10.6082649230957 0
-0.6897926330566406 -10.6082649230957 0
-0.1897926330566406 -10.6082649230957 0
0.3102073669433594 -10.6082649230957 0
0.8102073669433594 -10.6082649230957 0
1.310207366943359 -10.6082649230957 0
1.810207366943359 -10.6082649230957 0
2.310207366943359 -10.6082649230957 0
2.810207366943359 -10.6082649230957 0
3.310207366943359 -10.6082649230957 0
3.810207366943359 -10.6082649230957 0
4.310207366943359 -10.6082649230957 0
4.810207366943359 -10.6082649230957 0
5.310207366943359 -10.6082649230957 0
5.810207366943359 -10.6082649230957 0
6.310207366943359 -10.6082649230957 0
6.810207366943359 -10.6082649230957 0
7.310207366943359 -10.6082649230957 0
7.810207366943359 -10.6082649230957 0
8.310207366943359 -10.6082649230957 0
8.810207366943359 -10.6082649230957 0
9.310207366943359 -10.6082649230957 0
9.810207366943359 -10.6082649230957 0
10.31020736694336 -10.6082649230957 0
10.81020736694336 -10.6082649230957 0
11.31020736694336 -10.6082649230957 0
11.81020736694336 -10.6082649230957 0
12.31020736694336 -10.6082649230957 0
12.31020736694336 -10.6082649230957 0
12.31020736694336 -10.6082649230957 1
12.31020736694336 -10.6082649230957 2
12.31020736694336 -10.6082649230957 3
12.31020736694336 -10.6082649230957 4
12.31020736694336 -10.6082649230957 5
12.31020736694336 -10.6082649230957 6
12.31020736694336 -10.6082649230957 7
12.31020736694336 -10.6082649230957 8
12.31020736694336 -10.6082649230957 9
12.31020736694336 -10.6082649230957 10
12.31020736694336 -10.6082649230957 11
12.31020736694336 -10.6082649230957 12
12.31020736694336 -10.6082649230957 13
12.31020736694336 -10.6082649230957 14
12.31020736694336 -10.6082649230957 15
12.31020736694336 -10.6082649230957 16
12.31020736694336 -10.6082649230957 17
12.31020736694336 -10.6082649230957 18
12.31020736694336 -10.6082649230957 19
12.31020736694336 -10.6082649230957 20
12.31020736694336 -10.6082649230957 21
12.31020736694336 -10.6082649230957 22
12.31020736694336 -10.6082649230957 23
12.31020736694336 -10.6082649230957 24
12.31020736694336 -10.6082649230957 25
12.31020736694336 -10.6082649230957 26
12.31020736694336 -10.6082649230957 27
12.31020736694336 -10.6082649230957 28
12.31020736694336 -10.6082649230957 29
12.31020736694336 -10.6082649230957 30
12.31020736694336 -10.6082649230957 31
12.81020736694336 -10.6082649230957 1.692298889160156
12.81020736694336 -10.6082649230957 0
12.81020736694336 -10.6082649230957 1
12.81020736694336 -10.6082649230957 2
12.81020736694336 -10.6082649230957 3
12.81020736694336 -10.6082649230957 4
12.81020736694336 -10.6082649230957 5
12.81020736694336 -10.6082649230957 6
12.81020736694336 -10.6082649230957 7
12.81020736694336 -10.6082649230957 8
12.81020736694336 -10.6082649230957 9
12.81020736694336 -10.6082649230957 10
12.81020736694336 -10.6082649230957 11
12.81020736694336 -10.6082649230957 12
12.81020736694336 -10.6082649230957 13
12.81020736694336 -10.6082649230957 14
12.81020736694336 -10.6082649230957 15
12.81020736694336 -10.6082649230957 16
12.81020736694336 -10.6082649230957 17
12.81020736694336 -10.6082649230957 18
12.81020736694336 -10.6082649230957 19
12.81020736694336 -10.6082649230957 20
12.81020736694336 -10.6082649230957 21
12.81020736694336 -10.6082649230957 22
12.81020736694336 -10.6082649230957 23
12.81020736694336 -10.6082649230957 24
12.81020736694336 -10.6082649230957 25
12.81020736694336 -10.6082649230957 26
12.81020736694336 -10.6082649230957 27
12.81020736694336 -10.6082649230957 28
12.81020736694336 -10.6082649230957 29
12.81020736694336 -10.6082649230957 30
12.81020736694336 -10.6082649230957 31
13.31020736694336 -10.6082649230957 0
13.81020736694336 -10.6082649230957 0
14.31020736694336 -10.6082649230957 0
14.81020736694336 -10.6082649230957 0
15.31020736694336 -10.6082649230957 0
15.81020736694336 -10.6082649230957 0
16.31020736694336 -10.6082649230957 0
16.81020736694336 -10.6082649230957 0
17.31020736694336 -10.6082649230957 0
17.81020736694336 -10.6082649230957 0
18.31020736694336 -10.6082649230957 0
18.81020736694336 -10.6082649230957 0
19.31020736694336 -10.6082649230957 0
19.81020736694336 -10.6082649230957 0
20.31020736694336 -10.6082649230957 0
20.81020736694336 -10.6082649230957 0
21.31020736694336 -10.6082649230957 0
21.81020736694336 -10.6082649230957 0
22.31020736694336 -10.6082649230957 0
22.81020736694336 -10.6082649230957 0
23.31020736694336 -10.6082649230957 0
23.81020736694336 -10.6082649230957 0
24.31020736694336 -10.6082649230957 0
24.81020736694336 -10.6082649230957 0
25.31020736694336 -10.6082649230957 0
25.81020736694336 -10.6082649230957 0
26.31020736694336 -10.6082649230957 0
26.81020736694336 -10.6082649230957 0
27.31020736694336 -10.6082649230957 0
27.81020736694336 -10.6082649230957 0
28.31020736694336 -10.6082649230957 0
28.81020736694336 -10.6082649230957 0
29.31020736694336 -10.6082649230957 0
29.81020736694336 -10.6082649230957 0
30.31020736694336 -10.6082649230957 0
30.81020736694336 -10.6082649230957 0
31.31020736694336 -10.6082649230957 0
31.81020736694336 -10.6082649230957 0
-34.68979263305664 -10.1082649230957 0
-34.18979263305664 -10.1082649230957 0
-33.68979263305664 -10.1082649230957 0
-33.18979263305664 -10.1082649230957 0
-32.68979263305664 -10.1082649230957 0
-32.18979263305664 -10.1082649230957 0
-31.68979263305664 -10.1082649230957 0
-31.18979263305664 -10.1082649230957 0
-30.68979263305664 -10.1082649230957 0
-30.18979263305664 -10.1082649230957 0
-29.68979263305664 -10.1082649230957 0
-29.18979263305664 -10.1082649230957 0
-28.68979263305664 -10.1082649230957 0
-28.18979263305664 -10.1082649230957 0
-27.68979263305664 -10.1082649230957 0
-27.18979263305664 -10.1082649230957 0
-26.68979263305664 -10.1082649230957 0
-26.18979263305664 -10.1082649230957 0
-25.68979263305664 -10.1082649230957 0
-25.18979263305664 -10.1082649230957 0
-24.68979263305664 -10.1082649230957 0
-24.18979263305664 -10.1082649230957 0
-23.68979263305664 -10.1082649230957 0
-23.18979263305664 -10.1082649230957 0
-22.68979263305664 -10.1082649230957 0
-22.18979263305664 -10.1082649230957 0
-21.68979263305664 -10.1082649230957 0
-21.18979263305664 -10.1082649230957 0
-20.68979263305664 -10.1082649230957 0
-20.18979263305664 -10.1082649230957 0
-19.68979263305664 -10.1082649230957 0
-19.18979263305664 -10.1082649230957 0
-18.68979263305664 -10.1082649230957 0
-18.18979263305664 -10.1082649230957 0
-17.68979263305664 -10.1082649230957 0
-17.18979263305664 -10.1082649230957 0
-16.68979263305664 -10.1082649230957 0
-16.18979263305664 -10.1082649230957 0
-16.18979263305664 -10.1082649230957 0
-16.18979263305664 -10.1082649230957 1
-16.18979263305664 -10.1082649230957 2
-16.18979263305664 -10.1082649230957 3
-16.18979263305664 -10.1082649230957 4
-16.18979263305664 -10.1082649230957 5
-16.18979263305664 -10.1082649230957 6
-16.18979263305664 -10.1082649230957 7
-16.18979263305664 -10.1082649230957 8
-16.18979263305664 -10.1082649230957 9
-16.18979263305664 -10.1082649230957 10
-16.18979263305664 -10.1082649230957 11
-16.18979263305664 -10.1082649230957 12
-16.18979263305664 -10.1082649230957 13
-16.18979263305664 -10.1082649230957 14
-16.18979263305664 -10.1082649230957 15
-16.18979263305664 -10.1082649230957 16
-16.18979263305664 -10.1082649230957 17
-16.18979263305664 -10.1082649230957 18
-16.18979263305664 -10.1082649230957 19
-16.18979263305664 -10.1082649230957 20
-16.18979263305664 -10.1082649230957 21
-16.18979263305664 -10.1082649230957 22
-16.18979263305664 -10.1082649230957 23
-16.18979263305664 -10.1082649230957 24
-16.18979263305664 -10.1082649230957 25
-16.18979263305664 -10.1082649230957 26
-16.18979263305664 -10.1082649230957 27
-15.68979263305664 -10.1082649230957 28.93991851806641
-15.68979263305664 -10.1082649230957 0
-15.68979263305664 -10.1082649230957 1
-15.68979263305664 -10.1082649230957 2
-15.68979263305664 -10.1082649230957 3
-15.68979263305664 -10.1082649230957 4
-15.68979263305664 -10.1082649230957 5
-15.68979263305664 -10.1082649230957 6
-15.68979263305664 -10.1082649230957 7
-15.68979263305664 -10.1082649230957 8
-15.68979263305664 -10.1082649230957 9
-15.68979263305664 -10.1082649230957 10
-15.68979263305664 -10.1082649230957 11
-15.68979263305664 -10.1082649230957 12
-15.68979263305664 -10.1082649230957 13
-15.68979263305664 -10.1082649230957 14
-15.68979263305664 -10.1082649230957 15
-15.68979263305664 -10.1082649230957 16
-15.68979263305664 -10.1082649230957 17
-15.68979263305664 -10.1082649230957 18
-15.68979263305664 -10.1082649230957 19
-15.68979263305664 -10.1082649230957 20
-15.68979263305664 -10.1082649230957 21
-15.68979263305664 -10.1082649230957 22
-15.68979263305664 -10.1082649230957 23
-15.68979263305664 -10.1082649230957 24
-15.68979263305664 -10.1082649230957 25
-15.68979263305664 -10.1082649230957 26
-15.68979263305664 -10.1082649230957 27
-15.18979263305664 -10.1082649230957 0
-14.68979263305664 -10.1082649230957 0
-14.18979263305664 -10.1082649230957 0
-13.68979263305664 -10.1082649230957 0
-13.18979263305664 -10.1082649230957 0
-12.68979263305664 -10.1082649230957 0
-12.18979263305664 -10.1082649230957 0
-11.68979263305664 -10.1082649230957 0
-11.18979263305664 -10.1082649230957 0
-10.68979263305664 -10.1082649230957 0
-10.18979263305664 -10.1082649230957 0
-9.689792633056641 -10.1082649230957 0
-9.189792633056641 -10.1082649230957 0
-8.689792633056641 -10.1082649230957 0
-8.189792633056641 -10.1082649230957 0
-7.689792633056641 -10.1082649230957 0
-7.189792633056641 -10.1082649230957 0
-6.689792633056641 -10.1082649230957 0
-6.189792633056641 -10.1082649230957 0
-5.689792633056641 -10.1082649230957 0
-5.189792633056641 -10.1082649230957 0
-4.689792633056641 -10.1082649230957 0
-4.189792633056641 -10.1082649230957 0
-3.689792633056641 -10.1082649230957 0
-3.189792633056641 -10.1082649230957 0
-2.689792633056641 -10.1082649230957 0
-2.189792633056641 -10.1082649230957 0
-1.689792633056641 -10.1082649230957 0
-1.189792633056641 -10.1082649230957 0
-0.6897926330566406 -10.1082649230957 0
-0.1897926330566406 -10.1082649230957 0
0.3102073669433594 -10.1082649230957 0
0.8102073669433594 -10.1082649230957 0
1.310207366943359 -10.1082649230957 0
1.810207366943359 -10.1082649230957 0
2.310207366943359 -10.1082649230957 0
2.810207366943359 -10.1082649230957 0
3.310207366943359 -10.1082649230957 0
3.810207366943359 -10.1082649230957 0
4.310207366943359 -10.1082649230957 0
4.810207366943359 -10.1082649230957 0
5.310207366943359 -10.1082649230957 0
5.810207366943359 -10.1082649230957 0
6.310207366943359 -10.1082649230957 0
6.810207366943359 -10.1082649230957 0
7.310207366943359 -10.1082649230957 0
7.810207366943359 -10.1082649230957 0
8.310207366943359 -10.1082649230957 0
8.810207366943359 -10.1082649230957 0
9.310207366943359 -10.1082649230957 0
9.810207366943359 -10.1082649230957 0
10.31020736694336 -10.1082649230957 0
10.81020736694336 -10.1082649230957 0
11.31020736694336 -10.1082649230957 0
11.81020736694336 -10.1082649230957 0
12.31020736694336 -10.1082649230957 0
12.31020736694336 -10.1082649230957 0
12.31020736694336 -10.1082649230957 1
12.31020736694336 -10.1082649230957 2
12.31020736694336 -10.1082649230957 3
12.31020736694336 -10.1082649230957 4
12.31020736694336 -10.1082649230957 5
12.31020736694336 -10.1082649230957 6
12.31020736694336 -10.1082649230957 7
12.31020736694336 -10.1082649230957 8
12.31020736694336 -10.1082649230957 9
12.31020736694336 -10.1082649230957 10
12.31020736694336 -10.1082649230957 11
12.31020736694336 -10.1082649230957 12
12.31020736694336 -10.1082649230957 13
12.31020736694336 -10.1082649230957 14
12.31020736694336 -10.1082649230957 15
12.31020736694336 -10.1082649230957 16
12.31020736694336 -10.1082649230957 17
12.31020736694336 -10.1082649230957 18
12.31020736694336 -10.1082649230957 19
12.31020736694336 -10.1082649230957 20
12.31020736694336 -10.1082649230957 21
12.31020736694336 -10.1082649230957 22
12.31020736694336 -10.1082649230957 23
12.31020736694336 -10.1082649230957 24
12.31020736694336 -10.1082649230957 25
12.31020736694336 -10.1082649230957 26
12.31020736694336 -10.1082649230957 27
12.31020736694336 -10.1082649230957 28
12.31020736694336 -10.1082649230957 29
12.31020736694336 -10.1082649230957 30
12.31020736694336 -10.1082649230957 31
12.31020736694336 -10.1082649230957 32
12.81020736694336 -10.1082649230957 1.695732116699219
12.81020736694336 -10.1082649230957 0
12.81020736694336 -10.1082649230957 1
12.81020736694336 -10.1082649230957 2
12.81020736694336 -10.1082649230957 3
12.81020736694336 -10.1082649230957 4
12.81020736694336 -10.1082649230957 5
12.81020736694336 -10.1082649230957 6
12.81020736694336 -10.1082649230957 7
12.81020736694336 -10.1082649230957 8
12.81020736694336 -10.1082649230957 9
12.81020736694336 -10.1082649230957 10
12.81020736694336 -10.1082649230957 11
12.81020736694336 -10.1082649230957 12
12.81020736694336 -10.1082649230957 13
12.81020736694336 -10.1082649230957 14
12.81020736694336 -10.1082649230957 15
12.81020736694336 -10.1082649230957 16
12.81020736694336 -10.1082649230957 17
12.81020736694336 -10.1082649230957 18
12.81020736694336 -10.1082649230957 19
12.81020736694336 -10.1082649230957 20
12.81020736694336 -10.1082649230957 21
12.81020736694336 -10.1082649230957 22
12.81020736694336 -10.1082649230957 23
12.81020736694336 -10.1082649230957 24
12.81020736694336 -10.1082649230957 25
12.81020736694336 -10.1082649230957 26
12.81020736694336 -10.1082649230957 27
12.81020736694336 -10.1082649230957 28
12.81020736694336 -10.1082649230957 29
12.81020736694336 -10.1082649230957 30
12.81020736694336 -10.1082649230957 31
12.81020736694336 -10.1082649230957 32
13.31020736694336 -10.1082649230957 0
13.81020736694336 -10.1082649230957 0
14.31020736694336 -10.1082649230957 0
14.81020736694336 -10.1082649230957 0
15.31020736694336 -10.1082649230957 0
15.81020736694336 -10.1082649230957 0
16.31020736694336 -10.1082649230957 0
16.81020736694336 -10.1082649230957 0
17.31020736694336 -10.1082649230957 0
17.81020736694336 -10.1082649230957 0
18.31020736694336 -10.1082649230957 0
18.81020736694336 -10.1082649230957 0
19.31020736694336 -10.1082649230957 0
19.81020736694336 -10.1082649230957 0
20.31020736694336 -10.1082649230957 0
20.81020736694336 -10.1082649230957 0
21.31020736694336 -10.1082649230957 0
21.81020736694336 -10.1082649230957 0
22.31020736694336 -10.1082649230957 0
22.81020736694336 -10.1082649230957 0
23.31020736694336 -10.1082649230957 0
23.81020736694336 -10.1082649230957 0
24.31020736694336 -10.1082649230957 0
24.81020736694336 -10.1082649230957 0
25.31020736694336 -10.1082649230957 0
25.81020736694336 -10.1082649230957 0
26.31020736694336 -10.1082649230957 0
26.81020736694336 -10.1082649230957 0
27.31020736694336 -10.1082649230957 0
27.81020736694336 -10.1082649230957 0
28.31020736694336 -10.1082649230957 0
28.81020736694336 -10.1082649230957 0
29.31020736694336 -10.1082649230957 0
29.81020736694336 -10.1082649230957 0
30.31020736694336 -10.1082649230957 0
30.81020736694336 -10.1082649230957 0
31.31020736694336 -10.1082649230957 0
31.81020736694336 -10.1082649230957 0
-34.68979263305664 -9.608264923095703 0
-34.18979263305664 -9.608264923095703 0
-33.68979263305664 -9.608264923095703 0
-33.18979263305664 -9.608264923095703 0
-32.68979263305664 -9.608264923095703 0
-32.18979263305664 -9.608264923095703 0
-31.68979263305664 -9.608264923095703 0
-31.18979263305664 -9.608264923095703 0
-30.68979263305664 -9.608264923095703 0
-30.18979263305664 -9.608264923095703 0
-29.68979263305664 -9.608264923095703 0
-29.18979263305664 -9.608264923095703 0
-28.68979263305664 -9.608264923095703 0
-28.18979263305664 -9.608264923095703 0
-27.68979263305664 -9.608264923095703 0
-27.18979263305664 -9.608264923095703 0
-26.68979263305664 -9.608264923095703 0
-26.18979263305664 -9.608264923095703 0
-25.68979263305664 -9.608264923095703 0
-25.18979263305664 -9.608264923095703 0
-24.68979263305664 -9.608264923095703 0
-24.18979263305664 -9.608264923095703 0
-23.68979263305664 -9.608264923095703 0
-23.18979263305664 -9.608264923095703 0
-22.68979263305664 -9.608264923095703 0
-22.18979263305664 -9.608264923095703 0
-21.68979263305664 -9.608264923095703 0
-21.18979263305664 -9.608264923095703 0
-20.68979263305664 -9.608264923095703 0
-20.18979263305664 -9.608264923095703 0
-19.68979263305664 -9.608264923095703 0
-19.18979263305664 -9.608264923095703 0
-18.68979263305664 -9.608264923095703 0
-18.18979263305664 -9.608264923095703 0
-17.68979263305664 -9.608264923095703 0
-17.18979263305664 -9.608264923095703 0
-16.68979263305664 -9.608264923095703 0
-16.18979263305664 -9.608264923095703 0
-16.18979263305664 -9.608264923095703 0
-16.18979263305664 -9.608264923095703 1
-16.18979263305664 -9.608264923095703 2
-16.18979263305664 -9.608264923095703 3
-16.18979263305664 -9.608264923095703 4
-16.18979263305664 -9.608264923095703 5
-16.18979263305664 -9.608264923095703 6
-16.18979263305664 -9.608264923095703 7
-16.18979263305664 -9.608264923095703 8
-16.18979263305664 -9.608264923095703 9
-16.18979263305664 -9.608264923095703 10
-16.18979263305664 -9.608264923095703 11
-16.18979263305664 -9.608264923095703 12
-16.18979263305664 -9.608264923095703 13
-16.18979263305664 -9.608264923095703 14
-16.18979263305664 -9.608264923095703 15
-16.18979263305664 -9.608264923095703 16
-16.18979263305664 -9.608264923095703 17
-16.18979263305664 -9.608264923095703 18
-16.18979263305664 -9.608264923095703 19
-16.18979263305664 -9.608264923095703 20
-16.18979263305664 -9.608264923095703 21
-16.18979263305664 -9.608264923095703 22
-16.18979263305664 -9.608264923095703 23
-16.18979263305664 -9.608264923095703 24
-16.18979263305664 -9.608264923095703 25
-16.18979263305664 -9.608264923095703 26
-16.18979263305664 -9.608264923095703 27
-15.68979263305664 -9.608264923095703 28.93771553039551
-15.68979263305664 -9.608264923095703 0
-15.68979263305664 -9.608264923095703 1
-15.68979263305664 -9.608264923095703 2
-15.68979263305664 -9.608264923095703 3
-15.68979263305664 -9.608264923095703 4
-15.68979263305664 -9.608264923095703 5
-15.68979263305664 -9.608264923095703 6
-15.68979263305664 -9.608264923095703 7
-15.68979263305664 -9.608264923095703 8
-15.68979263305664 -9.608264923095703 9
-15.68979263305664 -9.608264923095703 10
-15.68979263305664 -9.608264923095703 11
-15.68979263305664 -9.608264923095703 12
-15.68979263305664 -9.608264923095703 13
-15.68979263305664 -9.608264923095703 14
-15.68979263305664 -9.608264923095703 15
-15.68979263305664 -9.608264923095703 16
-15.68979263305664 -9.608264923095703 17
-15.68979263305664 -9.608264923095703 18
-15.68979263305664 -9.608264923095703 19
-15.68979263305664 -9.608264923095703 20
-15.68979263305664 -9.608264923095703 21
-15.68979263305664 -9.608264923095703 22
-15.68979263305664 -9.608264923095703 23
-15.68979263305664 -9.608264923095703 24
-15.68979263305664 -9.608264923095703 25
-15.68979263305664 -9.608264923095703 26
-15.68979263305664 -9.608264923095703 27
-15.18979263305664 -9.608264923095703 0
-14.68979263305664 -9.608264923095703 0
-14.18979263305664 -9.608264923095703 0
-13.68979263305664 -9.608264923095703 0
-13.18979263305664 -9.608264923095703 0
-12.68979263305664 -9.608264923095703 0
-12.18979263305664 -9.608264923095703 0
-11.68979263305664 -9.608264923095703 0
-11.18979263305664 -9.608264923095703 0
-10.68979263305664 -9.608264923095703 0
-10.18979263305664 -9.608264923095703 0
-9.689792633056641 -9.608264923095703 0
-9.189792633056641 -9.608264923095703 0
-8.689792633056641 -9.608264923095703 0
-8.189792633056641 -9.608264923095703 0
-7.689792633056641 -9.608264923095703 0
-7.689792633056641 -9.608264923095703 0
-7.689792633056641 -9.608264923095703 1
-7.689792633056641 -9.608264923095703 2
-7.689792633056641 -9.608264923095703 3
-7.689792633056641 -9.608264923095703 4
-7.689792633056641 -9.608264923095703 5
-7.689792633056641 -9.608264923095703 6
-7.189792633056641 -9.608264923095703 34.65571212768555
-7.189792633056641 -9.608264923095703 0
-7.189792633056641 -9.608264923095703 1
-7.189792633056641 -9.608264923095703 2
-7.189792633056641 -9.608264923095703 3
-7.189792633056641 -9.608264923095703 4
-7.189792633056641 -9.608264923095703 5
-7.189792633056641 -9.608264923095703 6
-6.689792633056641 -9.608264923095703 0
-6.189792633056641 -9.608264923095703 0
-5.689792633056641 -9.608264923095703 0
-5.189792633056641 -9.608264923095703 0
-4.689792633056641 -9.608264923095703 0
-4.189792633056641 -9.608264923095703 0
-3.689792633056641 -9.608264923095703 0
-3.189792633056641 -9.608264923095703 0
-2.689792633056641 -9.608264923095703 0
-2.189792633056641 -9.608264923095703 0
-1.689792633056641 -9.608264923095703 0
-1.189792633056641 -9.608264923095703 0
-0.6897926330566406 -9.608264923095703 0
-0.1897926330566406 -9.608264923095703 0
0.3102073669433594 -9.608264923095703 0
0.8102073669433594 -9.608264923095703 0
1.310207366943359 -9.608264923095703 0
1.810207366943359 -9.608264923095703 0
2.310207366943359 -9.608264923095703 0
2.810207366943359 -9.608264923095703 0
3.310207366943359 -9.608264923095703 0
3.810207366943359 -9.608264923095703 0
4.310207366943359 -9.608264923095703 0
4.810207366943359 -9.608264923095703 0
5.310207366943359 -9.608264923095703 0
5.810207366943359 -9.608264923095703 0
6.310207366943359 -9.608264923095703 0
6.810207366943359 -9.608264923095703 0
7.310207366943359 -9.608264923095703 0
7.810207366943359 -9.608264923095703 0
8.310207366943359 -9.608264923095703 0
8.810207366943359 -9.608264923095703 0
9.310207366943359 -9.608264923095703 0
9.810207366943359 -9.608264923095703 0
10.31020736694336 -9.608264923095703 0
10.81020736694336 -9.608264923095703 0
11.31020736694336 -9.608264923095703 0
11.81020736694336 -9.608264923095703 0
12.31020736694336 -9.608264923095703 0
12.31020736694336 -9.608264923095703 0
12.31020736694336 -9.608264923095703 1
12.31020736694336 -9.608264923095703 2
12.31020736694336 -9.608264923095703 3
12.31020736694336 -9.608264923095703 4
12.31020736694336 -9.608264923095703 5
12.31020736694336 -9.608264923095703 6
12.31020736694336 -9.608264923095703 7
12.31020736694336 -9.608264923095703 8
12.31020736694336 -9.608264923095703 9
12.31020736694336 -9.608264923095703 10
12.31020736694336 -9.608264923095703 11
12.31020736694336 -9.608264923095703 12
12.31020736694336 -9.608264923095703 13
12.31020736694336 -9.608264923095703 14
12.31020736694336 -9.608264923095703 15
12.31020736694336 -9.608264923095703 16
12.31020736694336 -9.608264923095703 17
12.31020736694336 -9.608264923095703 18
12.31020736694336 -9.608264923095703 19
12.31020736694336 -9.608264923095703 20
12.31020736694336 -9.608264923095703 21
12.31020736694336 -9.608264923095703 22
12.31020736694336 -9.608264923095703 23
12.31020736694336 -9.608264923095703 24
12.31020736694336 -9.608264923095703 25
12.31020736694336 -9.608264923095703 26
12.31020736694336 -9.608264923095703 27
12.31020736694336 -9.608264923095703 28
12.31020736694336 -9.608264923095703 29
12.31020736694336 -9.608264923095703 30
12.31020736694336 -9.608264923095703 31
12.31020736694336 -9.608264923095703 32
12.81020736694336 -9.608264923095703 1.714366912841797
12.81020736694336 -9.608264923095703 0
12.81020736694336 -9.608264923095703 1
12.81020736694336 -9.608264923095703 2
12.81020736694336 -9.608264923095703 3
12.81020736694336 -9.608264923095703 4
12.81020736694336 -9.608264923095703 5
12.81020736694336 -9.608264923095703 6
12.81020736694336 -9.608264923095703 7
12.81020736694336 -9.608264923095703 8
12.81020736694336 -9.608264923095703 9
12.81020736694336 -9.608264923095703 10
12.81020736694336 -9.608264923095703 11
12.81020736694336 -9.608264923095703 12
12.81020736694336 -9.608264923095703 13
12.81020736694336 -9.608264923095703 14
12.81020736694336 -9.608264923095703 15
12.81020736694336 -9.608264923095703 16
12.81020736694336 -9.608264923095703 17
12.81020736694336 -9.608264923095703 18
12.81020736694336 -9.608264923095703 19
12.81020736694336 -9.608264923095703 20
12.81020736694336 -9.608264923095703 21
12.81020736694336 -9.608264923095703 22
12.81020736694336 -9.608264923095703 23
12.81020736694336 -9.608264923095703 24
12.81020736694336 -9.608264923095703 25
12.81020736694336 -9.608264923095703 26
12.81020736694336 -9.608264923095703 27
12.81020736694336 -9.608264923095703 28
12.81020736694336 -9.608264923095703 29
12.81020736694336 -9.608264923095703 30
12.81020736694336 -9.608264923095703 31
12.81020736694336 -9.608264923095703 32
13.31020736694336 -9.608264923095703 0
13.81020736694336 -9.608264923095703 0
14.31020736694336 -9.608264923095703 0
14.81020736694336 -9.608264923095703 0
15.31020736694336 -9.608264923095703 0
15.81020736694336 -9.608264923095703 0
16.31020736694336 -9.608264923095703 0
16.81020736694336 -9.608264923095703 0
17.31020736694336 -9.608264923095703 0
17.81020736694336 -9.608264923095703 0
18.31020736694336 -9.608264923095703 0
18.81020736694336 -9.608264923095703 0
19.31020736694336 -9.608264923095703 0
19.81020736694336 -9.608264923095703 0
20.31020736694336 -9.608264923095703 0
20.81020736694336 -9.608264923095703 0
21.31020736694336 -9.608264923095703 0
21.81020736694336 -9.608264923095703 0
22.31020736694336 -9.608264923095703 0
22.81020736694336 -9.608264923095703 0
23.31020736694336 -9.608264923095703 0
23.81020736694336 -9.608264923095703 0
24.31020736694336 -9.608264923095703 0
24.81020736694336 -9.608264923095703 0
25.31020736694336 -9.608264923095703 0
25.81020736694336 -9.608264923095703 0
26.31020736694336 -9.608264923095703 0
26.81020736694336 -9.608264923095703 0
27.31020736694336 -9.608264923095703 0
27.81020736694336 -9.608264923095703 0
28.31020736694336 -9.608264923095703 0
28.81020736694336 -9.608264923095703 0
29.31020736694336 -9.608264923095703 0
29.81020736694336 -9.608264923095703 0
30.31020736694336 -9.608264923095703 0
30.81020736694336 -9.608264923095703 0
31.31020736694336 -9.608264923095703 0
31.81020736694336 -9.608264923095703 0
-34.68979263305664 -9.108264923095703 0
-34.18979263305664 -9.108264923095703 0
-33.68979263305664 -9.108264923095703 0
-33.18979263305664 -9.108264923095703 0
-32.68979263305664 -9.108264923095703 0
-32.18979263305664 -9.108264923095703 0
-31.68979263305664 -9.108264923095703 0
-31.18979263305664 -9.108264923095703 0
-30.68979263305664 -9.108264923095703 0
-30.18979263305664 -9.108264923095703 0
-29.68979263305664 -9.108264923095703 0
-29.18979263305664 -9.108264923095703 0
-28.68979263305664 -9.108264923095703 0
-28.18979263305664 -9.108264923095703 0
-27.68979263305664 -9.108264923095703 0
-27.18979263305664 -9.108264923095703 0
-26.68979263305664 -9.108264923095703 0
-26.18979263305664 -9.108264923095703 0
-25.68979263305664 -9.108264923095703 0
-25.18979263305664 -9.108264923095703 0
-24.68979263305664 -9.108264923095703 0
-24.18979263305664 -9.108264923095703 0
-23.68979263305664 -9.108264923095703 0
-23.18979263305664 -9.108264923095703 0
-22.68979263305664 -9.108264923095703 0
-22.18979263305664 -9.108264923095703 0
-21.68979263305664 -9.108264923095703 0
-21.18979263305664 -9.108264923095703 0
-20.68979263305664 -9.108264923095703 0
-20.18979263305664 -9.108264923095703 0
-19.68979263305664 -9.108264923095703 0
-19.18979263305664 -9.108264923095703 0
-18.68979263305664 -9.108264923095703 0
-18.18979263305664 -9.108264923095703 0
-17.68979263305664 -9.108264923095703 0
-17.18979263305664 -9.108264923095703 0
-16.68979263305664 -9.108264923095703 0
-16.68979263305664 -9.108264923095703 0
-16.68979263305664 -9.108264923095703 1
-16.68979263305664 -9.108264923095703 2
-16.68979263305664 -9.108264923095703 3
-16.68979263305664 -9.108264923095703 4
-16.68979263305664 -9.108264923095703 5
-16.68979263305664 -9.108264923095703 6
-16.68979263305664 -9.108264923095703 7
-16.68979263305664 -9.108264923095703 8
-16.68979263305664 -9.108264923095703 9
-16.68979263305664 -9.108264923095703 10
-16.68979263305664 -9.108264923095703 11
-16.68979263305664 -9.108264923095703 12
-16.68979263305664 -9.108264923095703 13
-16.68979263305664 -9.108264923095703 14
-16.68979263305664 -9.108264923095703 15
-16.68979263305664 -9.108264923095703 16
-16.68979263305664 -9.108264923095703 17
-16.68979263305664 -9.108264923095703 18
-16.68979263305664 -9.108264923095703 19
-16.68979263305664 -9.108264923095703 20
-16.68979263305664 -9.108264923095703 21
-16.68979263305664 -9.108264923095703 22
-16.68979263305664 -9.108264923095703 23
-16.68979263305664 -9.108264923095703 24
-16.68979263305664 -9.108264923095703 25
-16.68979263305664 -9.108264923095703 26
-16.18979263305664 -9.108264923095703 28.44322967529297
-16.18979263305664 -9.108264923095703 0
-16.18979263305664 -9.108264923095703 1
-16.18979263305664 -9.108264923095703 2
-16.18979263305664 -9.108264923095703 3
-16.18979263305664 -9.108264923095703 4
-16.18979263305664 -9.108264923095703 5
-16.18979263305664 -9.108264923095703 6
-16.18979263305664 -9.108264923095703 7
-16.18979263305664 -9.108264923095703 8
-16.18979263305664 -9.108264923095703 9
-16.18979263305664 -9.108264923095703 10
-16.18979263305664 -9.108264923095703 11
-16.18979263305664 -9.108264923095703 12
-16.18979263305664 -9.108264923095703 13
-16.18979263305664 -9.108264923095703 14
-16.18979263305664 -9.108264923095703 15
-16.18979263305664 -9.108264923095703 16
-16.18979263305664 -9.108264923095703 17
-16.18979263305664 -9.108264923095703 18
-16.18979263305664 -9.108264923095703 19
-16.18979263305664 -9.108264923095703 20
-16.18979263305664 -9.108264923095703 21
-16.18979263305664 -9.108264923095703 22
-16.18979263305664 -9.108264923095703 23
-16.18979263305664 -9.108264923095703 24
-16.18979263305664 -9.108264923095703 25
-16.18979263305664 -9.108264923095703 26
-15.68979263305664 -9.108264923095703 0
-15.18979263305664 -9.108264923095703 0
-14.68979263305664 -9.108264923095703 0
-14.18979263305664 -9.108264923095703 0
-13.68979263305664 -9.108264923095703 0
-13.18979263305664 -9.108264923095703 0
-12.68979263305664 -9.108264923095703 0
-12.18979263305664 -9.108264923095703 0
-11.68979263305664 -9.108264923095703 0
-11.18979263305664 -9.108264923095703 0
-10.68979263305664 -9.108264923095703 0
-10.18979263305664 -9.108264923095703 0
-9.689792633056641 -9.108264923095703 0
-9.189792633056641 -9.108264923095703 0
-8.689792633056641 -9.108264923095703 0
-8.189792633056641 -9.108264923095703 0
-7.689792633056641 -9.108264923095703 0
-7.689792633056641 -9.108264923095703 0
-7.689792633056641 -9.108264923095703 1
-7.689792633056641 -9.108264923095703 2
-7.689792633056641 -9.108264923095703 3
-7.689792633056641 -9.108264923095703 4
-7.689792633056641 -9.108264923095703 5
-7.689792633056641 -9.108264923095703 6
-7.189792633056641 -9.108264923095703 34.6468505859375
-7.189792633056641 -9.108264923095703 0
-7.189792633056641 -9.108264923095703 1
-7.189792633056641 -9.108264923095703 2
-7.189792633056641 -9.108264923095703 3
-7.189792633056641 -9.108264923095703 4
-7.189792633056641 -9.108264923095703 5
-7.189792633056641 -9.108264923095703 6
-6.689792633056641 -9.108264923095703 0
-6.189792633056641 -9.108264923095703 0
-5.689792633056641 -9.108264923095703 0
-5.189792633056641 -9.108264923095703 0
-4.689792633056641 -9.108264923095703 0
-4.189792633056641 -9.108264923095703 0
-3.689792633056641 -9.108264923095703 0
-3.189792633056641 -9.108264923095703 0
-2.689792633056641 -9.108264923095703 0
-2.189792633056641 -9.108264923095703 0
-1.689792633056641 -9.108264923095703 0
-1.189792633056641 -9.108264923095703 0
-0.6897926330566406 -9.108264923095703 0
-0.1897926330566406 -9.108264923095703 0
0.3102073669433594 -9.108264923095703 0
0.8102073669433594 -9.108264923095703 0
1.310207366943359 -9.108264923095703 0
1.810207366943359 -9.108264923095703 0
2.310207366943359 -9.108264923095703 0
2.810207366943359 -9.108264923095703 0
3.310207366943359 -9.108264923095703 0
3.810207366943359 -9.108264923095703 0
4.310207366943359 -9.108264923095703 0
4.810207366943359 -9.108264923095703 0
5.310207366943359 -9.108264923095703 0
5.810207366943359 -9.108264923095703 0
6.310207366943359 -9.108264923095703 0
6.810207366943359 -9.108264923095703 0
7.310207366943359 -9.108264923095703 0
7.810207366943359 -9.108264923095703 0
8.310207366943359 -9.108264923095703 0
8.810207366943359 -9.108264923095703 0
9.310207366943359 -9.108264923095703 0
9.810207366943359 -9.108264923095703 0
10.31020736694336 -9.108264923095703 0
10.81020736694336 -9.108264923095703 0
11.31020736694336 -9.108264923095703 0
11.81020736694336 -9.108264923095703 0
12.31020736694336 -9.108264923095703 0
12.31020736694336 -9.108264923095703 0
12.31020736694336 -9.108264923095703 1
12.31020736694336 -9.108264923095703 2
12.31020736694336 -9.108264923095703 3
12.31020736694336 -9.108264923095703 4
12.31020736694336 -9.108264923095703 5
12.31020736694336 -9.108264923095703 6
12.31020736694336 -9.108264923095703 7
12.31020736694336 -9.108264923095703 8
12.31020736694336 -9.108264923095703 9
12.31020736694336 -9.108264923095703 10
12.31020736694336 -9.108264923095703 11
12.31020736694336 -9.108264923095703 12
12.31020736694336 -9.108264923095703 13
12.31020736694336 -9.108264923095703 14
12.31020736694336 -9.108264923095703 15
12.31020736694336 -9.108264923095703 16
12.31020736694336 -9.108264923095703 17
12.31020736694336 -9.108264923095703 18
12.31020736694336 -9.108264923095703 19
12.31020736694336 -9.108264923095703 20
12.31020736694336 -9.108264923095703 21
12.31020736694336 -9.108264923095703 22
12.31020736694336 -9.108264923095703 23
12.31020736694336 -9.108264923095703 24
12.31020736694336 -9.108264923095703 25
12.31020736694336 -9.108264923095703 26
12.31020736694336 -9.108264923095703 27
12.31020736694336 -9.108264923095703 28
12.31020736694336 -9.108264923095703 29
12.31020736694336 -9.108264923095703 30
12.31020736694336 -9.108264923095703 31
12.81020736694336 -9.108264923095703 1.731842041015625
12.81020736694336 -9.108264923095703 0
12.81020736694336 -9.108264923095703 1
12.81020736694336 -9.108264923095703 2
12.81020736694336 -9.108264923095703 3
12.81020736694336 -9.108264923095703 4
12.81020736694336 -9.108264923095703 5
12.81020736694336 -9.108264923095703 6
12.81020736694336 -9.108264923095703 7
12.81020736694336 -9.108264923095703 8
12.81020736694336 -9.108264923095703 9
12.81020736694336 -9.108264923095703 10
12.81020736694336 -9.108264923095703 11
12.81020736694336 -9.108264923095703 12
12.81020736694336 -9.108264923095703 13
12.81020736694336 -9.108264923095703 14
12.81020736694336 -9.108264923095703 15
12.81020736694336 -9.108264923095703 16
12.81020736694336 -9.108264923095703 17
12.81020736694336 -9.108264923095703 18
12.81020736694336 -9.108264923095703 19
12.81020736694336 -9.108264923095703 20
12.81020736694336 -9.108264923095703 21
12.81020736694336 -9.108264923095703 22
12.81020736694336 -9.108264923095703 23
12.81020736694336 -9.108264923095703 24
12.81020736694336 -9.108264923095703 25
12.81020736694336 -9.108264923095703 26
12.81020736694336 -9.108264923095703 27
12.81020736694336 -9.108264923095703 28
12.81020736694336 -9.108264923095703 29
12.81020736694336 -9.108264923095703 30
12.81020736694336 -9.108264923095703 31
13.31020736694336 -9.108264923095703 0
13.81020736694336 -9.108264923095703 0
14.31020736694336 -9.108264923095703 0
14.81020736694336 -9.108264923095703 0
15.31020736694336 -9.108264923095703 0
15.81020736694336 -9.108264923095703 0
16.31020736694336 -9.108264923095703 0
16.81020736694336 -9.108264923095703 0
17.31020736694336 -9.108264923095703 0
17.81020736694336 -9.108264923095703 0
18.31020736694336 -9.108264923095703 0
18.81020736694336 -9.108264923095703 0
19.31020736694336 -9.108264923095703 0
19.81020736694336 -9.108264923095703 0
20.31020736694336 -9.108264923095703 0
20.81020736694336 -9.108264923095703 0
21.31020736694336 -9.108264923095703 0
21.81020736694336 -9.108264923095703 0
22.31020736694336 -9.108264923095703 0
22.81020736694336 -9.108264923095703 0
23.31020736694336 -9.108264923095703 0
23.81020736694336 -9.108264923095703 0
24.31020736694336 -9.108264923095703 0
24.81020736694336 -9.108264923095703 0
25.31020736694336 -9.108264923095703 0
25.81020736694336 -9.108264923095703 0
26.31020736694336 -9.108264923095703 0
26.81020736694336 -9.108264923095703 0
27.31020736694336 -9.108264923095703 0
27.81020736694336 -9.108264923095703 0
28.31020736694336 -9.108264923095703 0
28.81020736694336 -9.108264923095703 0
29.31020736694336 -9.108264923095703 0
29.81020736694336 -9.108264923095703 0
30.31020736694336 -9.108264923095703 0
30.81020736694336 -9.108264923095703 0
31.31020736694336 -9.108264923095703 0
31.81020736694336 -9.108264923095703 0
-34.68979263305664 -8.608264923095703 0
-34.18979263305664 -8.608264923095703 0
-33.68979263305664 -8.608264923095703 0
-33.18979263305664 -8.608264923095703 0
-32.68979263305664 -8.608264923095703 0
-32.18979263305664 -8.608264923095703 0
-31.68979263305664 -8.608264923095703 0
-31.18979263305664 -8.608264923095703 0
-30.68979263305664 -8.608264923095703 0
-30.18979263305664 -8.608264923095703 0
-29.68979263305664 -8.608264923095703 0
-29.18979263305664 -8.608264923095703 0
-28.68979263305664 -8.608264923095703 0
-28.18979263305664 -8.608264923095703 0
-27.68979263305664 -8.608264923095703 0
-27.18979263305664 -8.608264923095703 0
-26.68979263305664 -8.608264923095703 0
-26.18979263305664 -8.608264923095703 0
-25.68979263305664 -8.608264923095703 0
-25.18979263305664 -8.608264923095703 0
-24.68979263305664 -8.608264923095703 0
-24.18979263305664 -8.608264923095703 0
-23.68979263305664 -8.608264923095703 0
-23.18979263305664 -8.608264923095703 0
-22.68979263305664 -8.608264923095703 0
-22.18979263305664 -8.608264923095703 0
-21.68979263305664 -8.608264923095703 0
-21.18979263305664 -8.608264923095703 0
-20.68979263305664 -8.608264923095703 0
-20.18979263305664 -8.608264923095703 0
-19.68979263305664 -8.608264923095703 0
-19.18979263305664 -8.608264923095703 0
-18.68979263305664 -8.608264923095703 0
-18.18979263305664 -8.608264923095703 0
-17.68979263305664 -8.608264923095703 0
-17.18979263305664 -8.608264923095703 0
-16.68979263305664 -8.608264923095703 0
-16.68979263305664 -8.608264923095703 0
-16.68979263305664 -8.608264923095703 1
-16.68979263305664 -8.608264923095703 2
-16.68979263305664 -8.608264923095703 3
-16.68979263305664 -8.608264923095703 4
-16.68979263305664 -8.608264923095703 5
-16.68979263305664 -8.608264923095703 6
-16.68979263305664 -8.608264923095703 7
-16.68979263305664 -8.608264923095703 8
-16.68979263305664 -8.608264923095703 9
-16.68979263305664 -8.608264923095703 10
-16.68979263305664 -8.608264923095703 11
-16.68979263305664 -8.608264923095703 12
-16.68979263305664 -8.608264923095703 13
-16.68979263305664 -8.608264923095703 14
-16.68979263305664 -8.608264923095703 15
-16.68979263305664 -8.608264923095703 16
-16.68979263305664 -8.608264923095703 17
-16.68979263305664 -8.608264923095703 18
-16.68979263305664 -8.608264923095703 19
-16.68979263305664 -8.608264923095703 20
-16.68979263305664 -8.608264923095703 21
-16.68979263305664 -8.608264923095703 22
-16.68979263305664 -8.608264923095703 23
-16.68979263305664 -8.608264923095703 24
-16.68979263305664 -8.608264923095703 25
-16.68979263305664 -8.608264923095703 26
-16.68979263305664 -8.608264923095703 27
-16.18979263305664 -8.608264923095703 28.7896671295166
-16.18979263305664 -8.608264923095703 0
-16.18979263305664 -8.608264923095703 1
-16.18979263305664 -8.608264923095703 2
-16.18979263305664 -8.608264923095703 3
-16.18979263305664 -8.608264923095703 4
-16.18979263305664 -8.608264923095703 5
-16.18979263305664 -8.608264923095703 6
-16.18979263305664 -8.608264923095703 7
-16.18979263305664 -8.608264923095703 8
-16.18979263305664 -8.608264923095703 9
-16.18979263305664 -8.608264923095703 10
-16.18979263305664 -8.608264923095703 11
-16.18979263305664 -8.608264923095703 12
-16.18979263305664 -8.608264923095703 13
-16.18979263305664 -8.608264923095703 14
-16.18979263305664 -8.608264923095703 15
-16.18979263305664 -8.608264923095703 16
-16.18979263305664 -8.608264923095703 17
-16.18979263305664 -8.608264923095703 18
-16.18979263305664 -8.608264923095703 19
-16.18979263305664 -8.608264923095703 20
-16.18979263305664 -8.608264923095703 21
-16.18979263305664 -8.608264923095703 22
-16.18979263305664 -8.608264923095703 23
-16.18979263305664 -8.608264923095703 24
-16.18979263305664 -8.608264923095703 25
-16.18979263305664 -8.608264923095703 26
-16.18979263305664 -8.608264923095703 27
-15.68979263305664 -8.608264923095703 0
-15.18979263305664 -8.608264923095703 0
-14.68979263305664 -8.608264923095703 0
-14.18979263305664 -8.608264923095703 0
-13.68979263305664 -8.608264923095703 0
-13.18979263305664 -8.608264923095703 0
-12.68979263305664 -8.608264923095703 0
-12.18979263305664 -8.608264923095703 0
-11.68979263305664 -8.608264923095703 0
-11.18979263305664 -8.608264923095703 0
-10.68979263305664 -8.608264923095703 0
-10.18979263305664 -8.608264923095703 0
-9.689792633056641 -8.608264923095703 0
-9.189792633056641 -8.608264923095703 0
-9.189792633056641 -8.608264923095703 0
-9.189792633056641 -8.608264923095703 1
-9.189792633056641 -8.608264923095703 2
-9.189792633056641 -8.608264923095703 3
-9.189792633056641 -8.608264923095703 4
-9.189792633056641 -8.608264923095703 5
-9.189792633056641 -8.608264923095703 6
-9.189792633056641 -8.608264923095703 7
-8.689792633056641 -8.608264923095703 34.35051345825195
-8.189792633056641 -8.608264923095703 33.92355346679688
-7.689792633056641 -8.608264923095703 31.70259857177734
-7.189792633056641 -8.608264923095703 34.68490600585938
-6.689792633056641 -8.608264923095703 35.00732803344727
-6.189792633056641 -8.608264923095703 34.96370697021484
-6.189792633056641 -8.608264923095703 0
-6.189792633056641 -8.608264923095703 1
-6.189792633056641 -8.608264923095703 2
-6.189792633056641 -8.608264923095703 3
-6.189792633056641 -8.608264923095703 4
-6.189792633056641 -8.608264923095703 5
-6.189792633056641 -8.608264923095703 6
-6.189792633056641 -8.608264923095703 7
-5.689792633056641 -8.608264923095703 0
-5.189792633056641 -8.608264923095703 0
-4.689792633056641 -8.608264923095703 0
-4.189792633056641 -8.608264923095703 0
-3.689792633056641 -8.608264923095703 0
-3.189792633056641 -8.608264923095703 0
-2.689792633056641 -8.608264923095703 0
-2.189792633056641 -8.608264923095703 0
-1.689792633056641 -8.608264923095703 0
-1.189792633056641 -8.608264923095703 0
-0.6897926330566406 -8.608264923095703 0
-0.1897926330566406 -8.608264923095703 0
0.3102073669433594 -8.608264923095703 0
0.8102073669433594 -8.608264923095703 0
1.310207366943359 -8.608264923095703 0
1.810207366943359 -8.608264923095703 0
2.310207366943359 -8.608264923095703 0
2.810207366943359 -8.608264923095703 0
3.310207366943359 -8.608264923095703 0
3.810207366943359 -8.608264923095703 0
4.310207366943359 -8.608264923095703 0
4.810207366943359 -8.608264923095703 0
5.310207366943359 -8.608264923095703 0
5.810207366943359 -8.608264923095703 0
6.310207366943359 -8.608264923095703 0
6.810207366943359 -8.608264923095703 0
7.310207366943359 -8.608264923095703 0
7.810207366943359 -8.608264923095703 0
8.310207366943359 -8.608264923095703 0
8.810207366943359 -8.608264923095703 0
9.310207366943359 -8.608264923095703 0
9.810207366943359 -8.608264923095703 0
10.31020736694336 -8.608264923095703 0
10.81020736694336 -8.608264923095703 0
11.31020736694336 -8.608264923095703 0
11.81020736694336 -8.608264923095703 0
12.31020736694336 -8.608264923095703 0
12.31020736694336 -8.608264923095703 0
12.31020736694336 -8.608264923095703 1
12.31020736694336 -8.608264923095703 2
12.31020736694336 -8.608264923095703 3
12.31020736694336 -8.608264923095703 4
12.31020736694336 -8.608264923095703 5
12.31020736694336 -8.608264923095703 6
12.31020736694336 -8.608264923095703 7
12.31020736694336 -8.608264923095703 8
12.31020736694336 -8.608264923095703 9
12.31020736694336 -8.608264923095703 10
12.31020736694336 -8.608264923095703 11
12.31020736694336 -8.608264923095703 12
12.31020736694336 -8.608264923095703 13
12.31020736694336 -8.608264923095703 14
12.31020736694336 -8.608264923095703 15
12.31020736694336 -8.608264923095703 16
12.31020736694336 -8.608264923095703 17
12.31020736694336 -8.608264923095703 18
12.31020736694336 -8.608264923095703 19
12.31020736694336 -8.608264923095703 20
12.31020736694336 -8.608264923095703 21
12.31020736694336 -8.608264923095703 22
