ply
format ascii 1.0
comment Created by Open Asset Import Library - http://assimp.sf.net (v4.1.0)
element vertex 1093
property float x
property float y
property float z
element face 0
property list uchar int vertex_index
end_header
-15.68979263305664 -25.1082649230957 0
-14.68979263305664 -25.1082649230957 0
-13.68979263305664 -25.1082649230957 0
-12.68979263305664 -25.1082649230957 0
-11.68979263305664 -25.1082649230957 0
-10.68979263305664 -25.1082649230957 0
-9.689792633056641 -25.1082649230957 0
-8.689792633056641 -25.1082649230957 0
-7.689792633056641 -25.1082649230957 0
-6.689792633056641 -25.1082649230957 0
-5.689792633056641 -25.1082649230957 0
-4.689792633056641 -25.1082649230957 0
-3.689792633056641 -25.1082649230957 0
-2.689792633056641 -25.1082649230957 0
-1.689792633056641 -25.1082649230957 0
-0.6897926330566406 -25.1082649230957 0
0.3102073669433594 -25.1082649230957 0
1.310207366943359 -25.1082649230957 0
2.310207366943359 -25.1082649230957 0
3.310207366943359 -25.1082649230957 0
4.310207366943359 -25.1082649230957 0
5.310207366943359 -25.1082649230957 0
6.310207366943359 -25.1082649230957 0
7.310207366943359 -25.1082649230957 0
8.310207366943359 -25.1082649230957 0
9.310207366943359 -25.1082649230957 0
10.31020736694336 -25.1082649230957 0
11.31020736694336 -25.1082649230957 0
12.31020736694336 -25.1082649230957 0
13.31020736694336 -25.1082649230957 0
14.31020736694336 -25.1082649230957 0
15.31020736694336 -25.1082649230957 0
16.31020736694336 -25.1082649230957 0
17.31020736694336 -25.1082649230957 0
18.31020736694336 -25.1082649230957 0
19.31020736694336 -25.1082649230957 0
20.31020736694336 -25.1082649230957 0
21.31020736694336 -25.1082649230957 0
22.31020736694336 -25.1082649230957 0
23.31020736694336 -25.1082649230957 0
24.31020736694336 -25.1082649230957 0
25.31020736694336 -25.1082649230957 0
26.31020736694336 -25.1082649230957 0
27.31020736694336 -25.1082649230957 0
28.31020736694336 -25.1082649230957 0
29.31020736694336 -25.1082649230957 0
30.31020736694336 -25.1082649230957 0
30.31020736694336 -25.1082649230957 0
30.31020736694336 -25.1082649230957 1
30.31020736694336 -25.1082649230957 2
30.31020736694336 -25.1082649230957 3
30.31020736694336 -25.1082649230957 4
30.31020736694336 -25.1082649230957 5
-33.68979263305664 -24.1082649230957 1.692047119140625
-32.68979263305664 -24.1082649230957 1.700538635253906
-31.68979263305664 -24.1082649230957 1.680812835693359
-30.68979263305664 -24.1082649230957 1.687423706054688
-29.68979263305664 -24.1082649230957 1.666450500488281
-28.68979263305664 -24.1082649230957 1.676132202148438
-27.68979263305664 -24.1082649230957 1.676738739013672
-26.68979263305664 -24.1082649230957 1.669212341308594
-25.68979263305664 -24.1082649230957 1.685943603515625
-24.68979263305664 -24.1082649230957 1.676113128662109
-23.68979263305664 -24.1082649230957 1.683296203613281
-22.68979263305664 -24.1082649230957 1.690731048583984
-21.68979263305664 -24.1082649230957 1.684871673583984
-20.68979263305664 -24.1082649230957 1.682926177978516
-19.68979263305664 -24.1082649230957 1.681808471679688
-18.68979263305664 -24.1082649230957 1.688980102539063
-17.68979263305664 -24.1082649230957 1.683265686035156
-16.68979263305664 -24.1082649230957 1.686077117919922
-15.68979263305664 -24.1082649230957 1.682109832763672
-14.68979263305664 -24.1082649230957 1.675178527832031
-13.68979263305664 -24.1082649230957 1.684284210205078
-12.68979263305664 -24.1082649230957 1.687549591064453
-11.68979263305664 -24.1082649230957 1.6773681640625
-10.68979263305664 -24.1082649230957 1.680027008056641
-9.689792633056641 -24.1082649230957 1.676307678222656
-8.689792633056641 -24.1082649230957 1.683883666992188
-7.689792633056641 -24.1082649230957 1.674980163574219
-6.689792633056641 -24.1082649230957 1.677196502685547
-5.689792633056641 -24.1082649230957 1.685657501220703
-4.689792633056641 -24.1082649230957 1.681488037109375
-3.689792633056641 -24.1082649230957 1.668167114257813
-2.689792633056641 -24.1082649230957 1.677200317382813
-1.689792633056641 -24.1082649230957 1.671623229980469
-0.6897926330566406 -24.1082649230957 1.671775817871094
0.3102073669433594 -24.1082649230957 1.678730010986328
1.310207366943359 -24.1082649230957 1.676082611083984
2.310207366943359 -24.1082649230957 1.673213958740234
3.310207366943359 -24.1082649230957 1.677585601806641
4.310207366943359 -24.1082649230957 1.670616149902344
5.310207366943359 -24.1082649230957 1.668586730957031
6.310207366943359 -24.1082649230957 1.683849334716797
7.310207366943359 -24.1082649230957 1.671783447265625
8.310207366943359 -24.1082649230957 1.672996520996094
9.310207366943359 -24.1082649230957 1.674549102783203
10.31020736694336 -24.1082649230957 1.665733337402344
11.31020736694336 -24.1082649230957 1.676109313964844
12.31020736694336 -24.1082649230957 1.663749694824219
13.31020736694336 -24.1082649230957 1.671363830566406
14.31020736694336 -24.1082649230957 1.676532745361328
15.31020736694336 -24.1082649230957 1.676525115966797
16.31020736694336 -24.1082649230957 1.682929992675781
17.31020736694336 -24.1082649230957 1.684810638427734
18.31020736694336 -24.1082649230957 1.684085845947266
19.31020736694336 -24.1082649230957 1.666759490966797
20.31020736694336 -24.1082649230957 1.673908233642578
21.31020736694336 -24.1082649230957 1.678382873535156
22.31020736694336 -24.1082649230957 1.683399200439453
23.31020736694336 -24.1082649230957 1.686435699462891
24.31020736694336 -24.1082649230957 1.668788909912109
25.31020736694336 -24.1082649230957 1.693084716796875
26.31020736694336 -24.1082649230957 1.681743621826172
27.31020736694336 -24.1082649230957 1.695884704589844
28.31020736694336 -24.1082649230957 1.668628692626953
29.31020736694336 -24.1082649230957 1.682094573974609
30.31020736694336 -24.1082649230957 1.672702789306641
30.31020736694336 -24.1082649230957 0
30.31020736694336 -24.1082649230957 1
30.31020736694336 -24.1082649230957 2
30.31020736694336 -24.1082649230957 3
30.31020736694336 -24.1082649230957 4
30.31020736694336 -24.1082649230957 5
-33.68979263305664 -23.1082649230957 0
-32.68979263305664 -23.1082649230957 0
-31.68979263305664 -23.1082649230957 0
-30.68979263305664 -23.1082649230957 0
-29.68979263305664 -23.1082649230957 0
-28.68979263305664 -23.1082649230957 0
-27.68979263305664 -23.1082649230957 0
-26.68979263305664 -23.1082649230957 0
-25.68979263305664 -23.1082649230957 0
-24.68979263305664 -23.1082649230957 0
-23.68979263305664 -23.1082649230957 0
-22.68979263305664 -23.1082649230957 0
-21.68979263305664 -23.1082649230957 0
-20.68979263305664 -23.1082649230957 0
-19.68979263305664 -23.1082649230957 0
-18.68979263305664 -23.1082649230957 0
-17.68979263305664 -23.1082649230957 0
-16.68979263305664 -23.1082649230957 0
-15.68979263305664 -23.1082649230957 0
-14.68979263305664 -23.1082649230957 0
-13.68979263305664 -23.1082649230957 0
-12.68979263305664 -23.1082649230957 0
-11.68979263305664 -23.1082649230957 0
-10.68979263305664 -23.1082649230957 0
-9.689792633056641 -23.1082649230957 0
-8.689792633056641 -23.1082649230957 0
-7.689792633056641 -23.1082649230957 0
-6.689792633056641 -23.1082649230957 0
-5.689792633056641 -23.1082649230957 0
-4.689792633056641 -23.1082649230957 0
-3.689792633056641 -23.1082649230957 0
-2.689792633056641 -23.1082649230957 0
-1.689792633056641 -23.1082649230957 0
-0.6897926330566406 -23.1082649230957 0
0.3102073669433594 -23.1082649230957 0
1.310207366943359 -23.1082649230957 0
2.310207366943359 -23.1082649230957 0
3.310207366943359 -23.1082649230957 0
4.310207366943359 -23.1082649230957 0
5.310207366943359 -23.1082649230957 0
6.310207366943359 -23.1082649230957 0
7.310207366943359 -23.1082649230957 0
8.310207366943359 -23.1082649230957 0
9.310207366943359 -23.1082649230957 0
10.31020736694336 -23.1082649230957 0
11.31020736694336 -23.1082649230957 0
12.31020736694336 -23.1082649230957 0
13.31020736694336 -23.1082649230957 0
14.31020736694336 -23.1082649230957 0
15.31020736694336 -23.1082649230957 0
16.31020736694336 -23.1082649230957 0
17.31020736694336 -23.1082649230957 0
18.31020736694336 -23.1082649230957 0
19.31020736694336 -23.1082649230957 0
20.31020736694336 -23.1082649230957 0
21.31020736694336 -23.1082649230957 0
22.31020736694336 -23.1082649230957 0
23.31020736694336 -23.1082649230957 0
24.31020736694336 -23.1082649230957 0
25.31020736694336 -23.1082649230957 0
26.31020736694336 -23.1082649230957 0
27.31020736694336 -23.1082649230957 0
28.31020736694336 -23.1082649230957 0
29.31020736694336 -23.1082649230957 0
30.31020736694336 -23.1082649230957 0
30.31020736694336 -23.1082649230957 0
30.31020736694336 -23.1082649230957 1
30.31020736694336 -23.1082649230957 2
30.31020736694336 -23.1082649230957 3
30.31020736694336 -23.1082649230957 4
30.31020736694336 -23.1082649230957 5
-33.68979263305664 -22.1082649230957 1.675350189208984
-32.68979263305664 -22.1082649230957 1.678455352783203
-31.68979263305664 -22.1082649230957 1.655372619628906
-30.68979263305664 -22.1082649230957 1.668647766113281
-29.68979263305664 -22.1082649230957 1.676315307617188
-28.68979263305664 -22.1082649230957 1.686908721923828
-27.68979263305664 -22.1082649230957 1.680347442626953
-26.68979263305664 -22.1082649230957 1.682655334472656
-25.68979263305664 -22.1082649230957 1.679843902587891
-24.68979263305664 -22.1082649230957 1.667778015136719
-23.68979263305664 -22.1082649230957 1.670150756835938
-22.68979263305664 -22.1082649230957 1.680068969726563
-21.68979263305664 -22.1082649230957 1.682266235351563
-20.68979263305664 -22.1082649230957 1.685798645019531
-19.68979263305664 -22.1082649230957 1.676460266113281
-18.68979263305664 -22.1082649230957 1.691612243652344
-17.68979263305664 -22.1082649230957 1.691246032714844
-16.68979263305664 -22.1082649230957 1.682533264160156
-15.68979263305664 -22.1082649230957 1.676925659179688
-14.68979263305664 -22.1082649230957 1.676624298095703
-13.68979263305664 -22.1082649230957 1.671138763427734
-12.68979263305664 -22.1082649230957 1.679695129394531
-11.68979263305664 -22.1082649230957 1.673709869384766
-10.68979263305664 -22.1082649230957 1.677753448486328
-9.689792633056641 -22.1082649230957 1.681636810302734
-8.689792633056641 -22.1082649230957 1.681198120117188
-7.689792633056641 -22.1082649230957 1.675575256347656
-6.689792633056641 -22.1082649230957 1.6793212890625
-5.689792633056641 -22.1082649230957 1.684749603271484
-4.689792633056641 -22.1082649230957 1.681716918945313
-3.689792633056641 -22.1082649230957 1.682121276855469
-2.689792633056641 -22.1082649230957 1.684680938720703
-1.689792633056641 -22.1082649230957 1.683139801025391
-0.6897926330566406 -22.1082649230957 1.6748046875
0.3102073669433594 -22.1082649230957 1.681480407714844
1.310207366943359 -22.1082649230957 1.689678192138672
2.310207366943359 -22.1082649230957 1.686679840087891
3.310207366943359 -22.1082649230957 1.69085693359375
4.310207366943359 -22.1082649230957 1.647014617919922
5.310207366943359 -22.1082649230957 1.670249938964844
6.310207366943359 -22.1082649230957 1.657508850097656
7.310207366943359 -22.1082649230957 1.679958343505859
8.310207366943359 -22.1082649230957 1.672725677490234
9.310207366943359 -22.1082649230957 1.666099548339844
10.31020736694336 -22.1082649230957 1.675468444824219
11.31020736694336 -22.1082649230957 1.65960693359375
12.31020736694336 -22.1082649230957 1.67413330078125
13.31020736694336 -22.1082649230957 1.698772430419922
14.31020736694336 -22.1082649230957 1.68603515625
15.31020736694336 -22.1082649230957 1.689842224121094
16.31020736694336 -22.1082649230957 1.700679779052734
17.31020736694336 -22.1082649230957 1.683998107910156
18.31020736694336 -22.1082649230957 1.683055877685547
19.31020736694336 -22.1082649230957 1.682460784912109
20.31020736694336 -22.1082649230957 1.684516906738281
21.31020736694336 -22.1082649230957 1.690780639648438
22.31020736694336 -22.1082649230957 1.680576324462891
23.31020736694336 -22.1082649230957 1.677001953125
24.31020736694336 -22.1082649230957 1.678428649902344
25.31020736694336 -22.1082649230957 1.678543090820313
26.31020736694336 -22.1082649230957 1.682209014892578
27.31020736694336 -22.1082649230957 1.684799194335938
28.31020736694336 -22.1082649230957 1.673805236816406
29.31020736694336 -22.1082649230957 1.692741394042969
30.31020736694336 -22.1082649230957 1.694572448730469
30.31020736694336 -22.1082649230957 0
30.31020736694336 -22.1082649230957 1
30.31020736694336 -22.1082649230957 2
30.31020736694336 -22.1082649230957 3
30.31020736694336 -22.1082649230957 4
-33.68979263305664 -21.1082649230957 0
-32.68979263305664 -21.1082649230957 0
-31.68979263305664 -21.1082649230957 0
-30.68979263305664 -21.1082649230957 0
-29.68979263305664 -21.1082649230957 0
-28.68979263305664 -21.1082649230957 0
-27.68979263305664 -21.1082649230957 0
-26.68979263305664 -21.1082649230957 0
-25.68979263305664 -21.1082649230957 0
-24.68979263305664 -21.1082649230957 0
-23.68979263305664 -21.1082649230957 0
-22.68979263305664 -21.1082649230957 0
-21.68979263305664 -21.1082649230957 0
-20.68979263305664 -21.1082649230957 0
-19.68979263305664 -21.1082649230957 0
-18.68979263305664 -21.1082649230957 0
-17.68979263305664 -21.1082649230957 0
-16.68979263305664 -21.1082649230957 0
-15.68979263305664 -21.1082649230957 0
-14.68979263305664 -21.1082649230957 0
-13.68979263305664 -21.1082649230957 0
-12.68979263305664 -21.1082649230957 0
-11.68979263305664 -21.1082649230957 0
-10.68979263305664 -21.1082649230957 0
-9.689792633056641 -21.1082649230957 0
-8.689792633056641 -21.1082649230957 0
-7.689792633056641 -21.1082649230957 0
-6.689792633056641 -21.1082649230957 0
-5.689792633056641 -21.1082649230957 0
-4.689792633056641 -21.1082649230957 0
-3.689792633056641 -21.1082649230957 0
-2.689792633056641 -21.1082649230957 0
-1.689792633056641 -21.1082649230957 0
-0.6897926330566406 -21.1082649230957 0
0.3102073669433594 -21.1082649230957 0
1.310207366943359 -21.1082649230957 0
2.310207366943359 -21.1082649230957 0
3.310207366943359 -21.1082649230957 0
4.310207366943359 -21.1082649230957 0
5.310207366943359 -21.1082649230957 0
6.310207366943359 -21.1082649230957 0
7.310207366943359 -21.1082649230957 0
8.310207366943359 -21.1082649230957 0
9.310207366943359 -21.1082649230957 0
10.31020736694336 -21.1082649230957 0
11.31020736694336 -21.1082649230957 0
12.31020736694336 -21.1082649230957 0
13.31020736694336 -21.1082649230957 0
14.31020736694336 -21.1082649230957 0
15.31020736694336 -21.1082649230957 0
16.31020736694336 -21.1082649230957 0
17.31020736694336 -21.1082649230957 0
18.31020736694336 -21.1082649230957 0
19.31020736694336 -21.1082649230957 0
20.31020736694336 -21.1082649230957 0
21.31020736694336 -21.1082649230957 0
22.31020736694336 -21.1082649230957 0
23.31020736694336 -21.1082649230957 0
24.31020736694336 -21.1082649230957 0
25.31020736694336 -21.1082649230957 0
26.31020736694336 -21.1082649230957 0
27.31020736694336 -21.1082649230957 0
28.31020736694336 -21.1082649230957 0
29.31020736694336 -21.1082649230957 0
30.31020736694336 -21.1082649230957 0
30.31020736694336 -21.1082649230957 0
30.31020736694336 -21.1082649230957 1
30.31020736694336 -21.1082649230957 2
30.31020736694336 -21.1082649230957 3
30.31020736694336 -21.1082649230957 4
-33.68979263305664 -20.1082649230957 1.683135986328125
-32.68979263305664 -20.1082649230957 1.693649291992188
-31.68979263305664 -20.1082649230957 1.694061279296875
-30.68979263305664 -20.1082649230957 1.681564331054688
-29.68979263305664 -20.1082649230957 1.684272766113281
-28.68979263305664 -20.1082649230957 1.691093444824219
-27.68979263305664 -20.1082649230957 1.676490783691406
-26.68979263305664 -20.1082649230957 1.687210083007813
-25.68979263305664 -20.1082649230957 1.694164276123047
-24.68979263305664 -20.1082649230957 1.675655364990234
-23.68979263305664 -20.1082649230957 1.690822601318359
-22.68979263305664 -20.1082649230957 1.689552307128906
-21.68979263305664 -20.1082649230957 1.691623687744141
-20.68979263305664 -20.1082649230957 1.687961578369141
-19.68979263305664 -20.1082649230957 1.692070007324219
-18.68979263305664 -20.1082649230957 1.691352844238281
-17.68979263305664 -20.1082649230957 1.685665130615234
-16.68979263305664 -20.1082649230957 1.692703247070313
-15.68979263305664 -20.1082649230957 1.687705993652344
-14.68979263305664 -20.1082649230957 1.690925598144531
-13.68979263305664 -20.1082649230957 1.680328369140625
-12.68979263305664 -20.1082649230957 1.685901641845703
-11.68979263305664 -20.1082649230957 1.687480926513672
-10.68979263305664 -20.1082649230957 1.670734405517578
-9.689792633056641 -20.1082649230957 1.688323974609375
-8.689792633056641 -20.1082649230957 1.680419921875
-7.689792633056641 -20.1082649230957 1.670085906982422
-6.689792633056641 -20.1082649230957 1.682838439941406
-5.689792633056641 -20.1082649230957 1.693687438964844
-4.689792633056641 -20.1082649230957 1.694000244140625
-3.689792633056641 -20.1082649230957 1.701229095458984
-2.689792633056641 -20.1082649230957 1.704330444335938
-1.689792633056641 -20.1082649230957 1.703498840332031
-0.6897926330566406 -20.1082649230957 1.702320098876953
0.3102073669433594 -20.1082649230957 1.696918487548828
1.310207366943359 -20.1082649230957 1.690437316894531
2.310207366943359 -20.1082649230957 1.686161041259766
3.310207366943359 -20.1082649230957 1.689430236816406
4.310207366943359 -20.1082649230957 1.668430328369141
5.310207366943359 -20.1082649230957 1.683731079101563
6.310207366943359 -20.1082649230957 1.660934448242188
7.310207366943359 -20.1082649230957 1.673534393310547
8.310207366943359 -20.1082649230957 1.678291320800781
9.310207366943359 -20.1082649230957 1.679927825927734
10.31020736694336 -20.1082649230957 1.683631896972656
11.31020736694336 -20.1082649230957 1.656726837158203
12.31020736694336 -20.1082649230957 1.676620483398438
13.31020736694336 -20.1082649230957 1.693305969238281
14.31020736694336 -20.1082649230957 1.698230743408203
15.31020736694336 -20.1082649230957 1.688583374023438
16.31020736694336 -20.1082649230957 1.696178436279297
17.31020736694336 -20.1082649230957 1.694622039794922
18.31020736694336 -20.1082649230957 1.697113037109375
19.31020736694336 -20.1082649230957 1.681365966796875
20.31020736694336 -20.1082649230957 1.673908233642578
21.31020736694336 -20.1082649230957 1.669853210449219
22.31020736694336 -20.1082649230957 1.676414489746094
23.31020736694336 -20.1082649230957 1.676124572753906
24.31020736694336 -20.1082649230957 1.693080902099609
25.31020736694336 -20.1082649230957 1.690238952636719
26.31020736694336 -20.1082649230957 1.670021057128906
27.31020736694336 -20.1082649230957 1.680770874023438
28.31020736694336 -20.1082649230957 1.695919036865234
29.31020736694336 -20.1082649230957 1.681221008300781
30.31020736694336 -20.1082649230957 1.695915222167969
30.31020736694336 -20.1082649230957 0
30.31020736694336 -20.1082649230957 1
30.31020736694336 -20.1082649230957 2
30.31020736694336 -20.1082649230957 3
30.31020736694336 -20.1082649230957 4
30.31020736694336 -20.1082649230957 5
-33.68979263305664 -19.1082649230957 0
-32.68979263305664 -19.1082649230957 0
-31.68979263305664 -19.1082649230957 0
-30.68979263305664 -19.1082649230957 0
-29.68979263305664 -19.1082649230957 0
-28.68979263305664 -19.1082649230957 0
-27.68979263305664 -19.1082649230957 0
-26.68979263305664 -19.1082649230957 0
-25.68979263305664 -19.1082649230957 0
-24.68979263305664 -19.1082649230957 0
-23.68979263305664 -19.1082649230957 0
-22.68979263305664 -19.1082649230957 0
-21.68979263305664 -19.1082649230957 0
-20.68979263305664 -19.1082649230957 0
-19.68979263305664 -19.1082649230957 0
-18.68979263305664 -19.1082649230957 0
-17.68979263305664 -19.1082649230957 0
-16.68979263305664 -19.1082649230957 0
-15.68979263305664 -19.1082649230957 0
-14.68979263305664 -19.1082649230957 0
-13.68979263305664 -19.1082649230957 0
-12.68979263305664 -19.1082649230957 0
-11.68979263305664 -19.1082649230957 0
-10.68979263305664 -19.1082649230957 0
-9.689792633056641 -19.1082649230957 0
-8.689792633056641 -19.1082649230957 0
-7.689792633056641 -19.1082649230957 0
-6.689792633056641 -19.1082649230957 0
-5.689792633056641 -19.1082649230957 0
-4.689792633056641 -19.1082649230957 0
-3.689792633056641 -19.1082649230957 0
-2.689792633056641 -19.1082649230957 0
-1.689792633056641 -19.1082649230957 0
-0.6897926330566406 -19.1082649230957 0
0.3102073669433594 -19.1082649230957 0
1.310207366943359 -19.1082649230957 0
2.310207366943359 -19.1082649230957 0
3.310207366943359 -19.1082649230957 0
4.310207366943359 -19.1082649230957 0
5.310207366943359 -19.1082649230957 0
6.310207366943359 -19.1082649230957 0
7.310207366943359 -19.1082649230957 0
8.310207366943359 -19.1082649230957 0
9.310207366943359 -19.1082649230957 0
10.31020736694336 -19.1082649230957 0
11.31020736694336 -19.1082649230957 0
12.31020736694336 -19.1082649230957 0
13.31020736694336 -19.1082649230957 0
14.31020736694336 -19.1082649230957 0
15.31020736694336 -19.1082649230957 0
16.31020736694336 -19.1082649230957 0
17.31020736694336 -19.1082649230957 0
18.31020736694336 -19.1082649230957 0
19.31020736694336 -19.1082649230957 0
20.31020736694336 -19.1082649230957 0
21.31020736694336 -19.1082649230957 0
22.31020736694336 -19.1082649230957 0
23.31020736694336 -19.1082649230957 0
24.31020736694336 -19.1082649230957 0
25.31020736694336 -19.1082649230957 0
26.31020736694336 -19.1082649230957 0
27.31020736694336 -19.1082649230957 0
28.31020736694336 -19.1082649230957 0
29.31020736694336 -19.1082649230957 0
30.31020736694336 -19.1082649230957 0
30.31020736694336 -19.1082649230957 0
30.31020736694336 -19.1082649230957 1
30.31020736694336 -19.1082649230957 2
30.31020736694336 -19.1082649230957 3
30.31020736694336 -19.1082649230957 4
30.31020736694336 -19.1082649230957 5
-33.68979263305664 -18.1082649230957 1.690406799316406
-32.68979263305664 -18.1082649230957 1.682712554931641
-31.68979263305664 -18.1082649230957 1.683403015136719
-30.68979263305664 -18.1082649230957 1.671184539794922
-29.68979263305664 -18.1082649230957 1.683895111083984
-28.68979263305664 -18.1082649230957 1.687107086181641
-27.68979263305664 -18.1082649230957 1.676994323730469
-26.68979263305664 -18.1082649230957 1.677829742431641
-25.68979263305664 -18.1082649230957 1.675502777099609
-24.68979263305664 -18.1082649230957 1.674747467041016
-23.68979263305664 -18.1082649230957 1.686759948730469
-22.68979263305664 -18.1082649230957 1.699600219726563
-21.68979263305664 -18.1082649230957 1.697494506835938
-20.68979263305664 -18.1082649230957 1.696273803710938
-19.68979263305664 -18.1082649230957 1.692790985107422
-18.68979263305664 -18.1082649230957 1.700630187988281
-17.68979263305664 -18.1082649230957 1.699440002441406
-16.68979263305664 -18.1082649230957 1.695266723632813
-15.68979263305664 -18.1082649230957 1.687850952148438
-14.68979263305664 -18.1082649230957 1.697158813476563
-13.68979263305664 -18.1082649230957 1.703872680664063
-12.68979263305664 -18.1082649230957 1.689029693603516
-11.68979263305664 -18.1082649230957 1.674312591552734
-10.68979263305664 -18.1082649230957 1.683322906494141
-9.689792633056641 -18.1082649230957 1.689929962158203
-8.689792633056641 -18.1082649230957 1.704494476318359
-7.689792633056641 -18.1082649230957 1.691013336181641
-6.689792633056641 -18.1082649230957 1.686668395996094
-5.689792633056641 -18.1082649230957 1.692047119140625
-4.689792633056641 -18.1082649230957 1.715469360351563
-3.689792633056641 -18.1082649230957 1.705909729003906
-2.689792633056641 -18.1082649230957 1.697795867919922
-1.689792633056641 -18.1082649230957 1.684982299804688
-0.6897926330566406 -18.1082649230957 1.705623626708984
0.3102073669433594 -18.1082649230957 1.677845001220703
1.310207366943359 -18.1082649230957 1.673957824707031
2.310207366943359 -18.1082649230957 1.674407958984375
3.310207366943359 -18.1082649230957 1.673637390136719
4.310207366943359 -18.1082649230957 1.659198760986328
5.310207366943359 -18.1082649230957 1.676052093505859
6.310207366943359 -18.1082649230957 1.689098358154297
7.310207366943359 -18.1082649230957 1.681015014648438
8.310207366943359 -18.1082649230957 1.682392120361328
9.310207366943359 -18.1082649230957 1.684970855712891
10.31020736694336 -18.1082649230957 1.707595825195313
11.31020736694336 -18.1082649230957 1.705829620361328
12.31020736694336 -18.1082649230957 1.72015380859375
13.31020736694336 -18.1082649230957 1.690753936767578
14.31020736694336 -18.1082649230957 1.684478759765625
15.31020736694336 -18.1082649230957 1.711959838867188
16.31020736694336 -18.1082649230957 1.700984954833984
17.31020736694336 -18.1082649230957 1.704544067382813
18.31020736694336 -18.1082649230957 1.711357116699219
19.31020736694336 -18.1082649230957 1.679794311523438
20.31020736694336 -18.1082649230957 1.685546875
21.31020736694336 -18.1082649230957 1.676784515380859
22.31020736694336 -18.1082649230957 1.680400848388672
23.31020736694336 -18.1082649230957 1.672554016113281
24.31020736694336 -18.1082649230957 1.671035766601563
25.31020736694336 -18.1082649230957 1.680919647216797
26.31020736694336 -18.1082649230957 1.689414978027344
27.31020736694336 -18.1082649230957 1.675945281982422
28.31020736694336 -18.1082649230957 1.690483093261719
29.31020736694336 -18.1082649230957 1.682861328125
30.31020736694336 -18.1082649230957 1.686504364013672
30.31020736694336 -18.1082649230957 0
30.31020736694336 -18.1082649230957 1
30.31020736694336 -18.1082649230957 2
30.31020736694336 -18.1082649230957 3
30.31020736694336 -18.1082649230957 4
30.31020736694336 -18.1082649230957 5
-33.68979263305664 -17.1082649230957 0
-32.68979263305664 -17.1082649230957 0
-31.68979263305664 -17.1082649230957 0
-30.68979263305664 -17.1082649230957 0
-29.68979263305664 -17.1082649230957 0
-28.68979263305664 -17.1082649230957 0
-27.68979263305664 -17.1082649230957 0
-26.68979263305664 -17.1082649230957 0
-25.68979263305664 -17.1082649230957 0
-24.68979263305664 -17.1082649230957 0
-23.68979263305664 -17.1082649230957 0
-22.68979263305664 -17.1082649230957 0
-21.68979263305664 -17.1082649230957 0
-20.68979263305664 -17.1082649230957 0
-19.68979263305664 -17.1082649230957 0
-18.68979263305664 -17.1082649230957 0
-17.68979263305664 -17.1082649230957 0
-16.68979263305664 -17.1082649230957 0
-15.68979263305664 -17.1082649230957 0
-14.68979263305664 -17.1082649230957 0
-13.68979263305664 -17.1082649230957 0
-12.68979263305664 -17.1082649230957 0
-11.68979263305664 -17.1082649230957 0
-10.68979263305664 -17.1082649230957 0
-9.689792633056641 -17.1082649230957 0
-8.689792633056641 -17.1082649230957 0
-7.689792633056641 -17.1082649230957 0
-6.689792633056641 -17.1082649230957 0
-5.689792633056641 -17.1082649230957 0
-4.689792633056641 -17.1082649230957 0
-3.689792633056641 -17.1082649230957 0
-2.689792633056641 -17.1082649230957 0
-1.689792633056641 -17.1082649230957 0
-0.6897926330566406 -17.1082649230957 0
0.3102073669433594 -17.1082649230957 0
1.310207366943359 -17.1082649230957 0
2.310207366943359 -17.1082649230957 0
3.310207366943359 -17.1082649230957 0
4.310207366943359 -17.1082649230957 0
5.310207366943359 -17.1082649230957 0
6.310207366943359 -17.1082649230957 0
7.310207366943359 -17.1082649230957 0
8.310207366943359 -17.1082649230957 0
9.310207366943359 -17.1082649230957 0
10.31020736694336 -17.1082649230957 0
11.31020736694336 -17.1082649230957 0
12.31020736694336 -17.1082649230957 0
13.31020736694336 -17.1082649230957 0
14.31020736694336 -17.1082649230957 0
15.31020736694336 -17.1082649230957 0
16.31020736694336 -17.1082649230957 0
17.31020736694336 -17.1082649230957 0
18.31020736694336 -17.1082649230957 0
19.31020736694336 -17.1082649230957 0
20.31020736694336 -17.1082649230957 0
21.31020736694336 -17.1082649230957 0
22.31020736694336 -17.1082649230957 0
23.31020736694336 -17.1082649230957 0
24.31020736694336 -17.1082649230957 0
25.31020736694336 -17.1082649230957 0
26.31020736694336 -17.1082649230957 0
27.31020736694336 -17.1082649230957 0
28.31020736694336 -17.1082649230957 0
29.31020736694336 -17.1082649230957 0
30.31020736694336 -17.1082649230957 0
30.31020736694336 -17.1082649230957 0
30.31020736694336 -17.1082649230957 1
30.31020736694336 -17.1082649230957 2
30.31020736694336 -17.1082649230957 3
30.31020736694336 -17.1082649230957 4
30.31020736694336 -17.1082649230957 5
-33.68979263305664 -16.1082649230957 1.688880920410156
-32.68979263305664 -16.1082649230957 1.686866760253906
-31.68979263305664 -16.1082649230957 1.689765930175781
-30.68979263305664 -16.1082649230957 1.681854248046875
-29.68979263305664 -16.1082649230957 1.681087493896484
-28.68979263305664 -16.1082649230957 1.691761016845703
-27.68979263305664 -16.1082649230957 1.677547454833984
-26.68979263305664 -16.1082649230957 1.677474975585938
-25.68979263305664 -16.1082649230957 1.677459716796875
-24.68979263305664 -16.1082649230957 1.682273864746094
-23.68979263305664 -16.1082649230957 1.689002990722656
-22.68979263305664 -16.1082649230957 1.687969207763672
-21.68979263305664 -16.1082649230957 1.700611114501953
-20.68979263305664 -16.1082649230957 1.711521148681641
-19.68979263305664 -16.1082649230957 1.736797332763672
-18.68979263305664 -16.1082649230957 1.706924438476563
-17.68979263305664 -16.1082649230957 1.699348449707031
-16.68979263305664 -16.1082649230957 1.705924987792969
-15.68979263305664 -16.1082649230957 1.689853668212891
-14.68979263305664 -16.1082649230957 1.71343994140625
-13.68979263305664 -16.1082649230957 1.680110931396484
-12.68979263305664 -16.1082649230957 1.699470520019531
-11.68979263305664 -16.1082649230957 1.680038452148438
-10.68979263305664 -16.1082649230957 1.672512054443359
-9.689792633056641 -16.1082649230957 1.674549102783203
-8.689792633056641 -16.1082649230957 1.678775787353516
-7.689792633056641 -16.1082649230957 1.673774719238281
-6.689792633056641 -16.1082649230957 1.670150756835938
-5.689792633056641 -16.1082649230957 1.67767333984375
-4.689792633056641 -16.1082649230957 1.711349487304688
-3.689792633056641 -16.1082649230957 1.696876525878906
-2.689792633056641 -16.1082649230957 1.705188751220703
-1.689792633056641 -16.1082649230957 1.698951721191406
-0.6897926330566406 -16.1082649230957 1.697593688964844
-0.6897926330566406 -16.1082649230957 0
-0.6897926330566406 -16.1082649230957 1
-0.6897926330566406 -16.1082649230957 2
-0.6897926330566406 -16.1082649230957 3
-0.6897926330566406 -16.1082649230957 4
-0.6897926330566406 -16.1082649230957 5
-0.6897926330566406 -16.1082649230957 6
-0.6897926330566406 -16.1082649230957 7
-0.6897926330566406 -16.1082649230957 8
-0.6897926330566406 -16.1082649230957 9
-0.6897926330566406 -16.1082649230957 10
-0.6897926330566406 -16.1082649230957 11
-0.6897926330566406 -16.1082649230957 12
-0.6897926330566406 -16.1082649230957 13
-0.6897926330566406 -16.1082649230957 14
-0.6897926330566406 -16.1082649230957 15
-0.6897926330566406 -16.1082649230957 16
-0.6897926330566406 -16.1082649230957 17
-0.6897926330566406 -16.1082649230957 18
-0.6897926330566406 -16.1082649230957 19
-0.6897926330566406 -16.1082649230957 20
-0.6897926330566406 -16.1082649230957 21
-0.6897926330566406 -16.1082649230957 22
-0.6897926330566406 -16.1082649230957 23
-0.6897926330566406 -16.1082649230957 24
-0.6897926330566406 -16.1082649230957 25
-0.6897926330566406 -16.1082649230957 26
0.3102073669433594 -16.1082649230957 0
0.3102073669433594 -16.1082649230957 0
0.3102073669433594 -16.1082649230957 1
0.3102073669433594 -16.1082649230957 2
0.3102073669433594 -16.1082649230957 3
0.3102073669433594 -16.1082649230957 4
0.3102073669433594 -16.1082649230957 5
0.3102073669433594 -16.1082649230957 6
0.3102073669433594 -16.1082649230957 7
0.3102073669433594 -16.1082649230957 8
0.3102073669433594 -16.1082649230957 9
0.3102073669433594 -16.1082649230957 10
0.3102073669433594 -16.1082649230957 11
0.3102073669433594 -16.1082649230957 12
0.3102073669433594 -16.1082649230957 13
0.3102073669433594 -16.1082649230957 14
0.3102073669433594 -16.1082649230957 15
0.3102073669433594 -16.1082649230957 16
0.3102073669433594 -16.1082649230957 17
0.3102073669433594 -16.1082649230957 18
0.3102073669433594 -16.1082649230957 19
0.3102073669433594 -16.1082649230957 20
0.3102073669433594 -16.1082649230957 21
0.3102073669433594 -16.1082649230957 22
0.3102073669433594 -16.1082649230957 23
0.3102073669433594 -16.1082649230957 24
0.3102073669433594 -16.1082649230957 25
0.3102073669433594 -16.1082649230957 26
0.3102073669433594 -16.1082649230957 27
1.310207366943359 -16.1082649230957 1.712127685546875
2.310207366943359 -16.1082649230957 1.746952056884766
3.310207366943359 -16.1082649230957 1.765518188476563
4.310207366943359 -16.1082649230957 1.804363250732422
5.310207366943359 -16.1082649230957 1.809745788574219
6.310207366943359 -16.1082649230957 1.700813293457031
7.310207366943359 -16.1082649230957 1.722862243652344
8.310207366943359 -16.1082649230957 1.725944519042969
9.310207366943359 -16.1082649230957 1.696693420410156
10.31020736694336 -16.1082649230957 1.760208129882813
11.31020736694336 -16.1082649230957 1.719596862792969
11.31020736694336 -16.1082649230957 0
11.31020736694336 -16.1082649230957 1
11.31020736694336 -16.1082649230957 2
11.31020736694336 -16.1082649230957 3
11.31020736694336 -16.1082649230957 4
11.31020736694336 -16.1082649230957 5
11.31020736694336 -16.1082649230957 6
11.31020736694336 -16.1082649230957 7
11.31020736694336 -16.1082649230957 8
11.31020736694336 -16.1082649230957 9
11.31020736694336 -16.1082649230957 10
11.31020736694336 -16.1082649230957 11
11.31020736694336 -16.1082649230957 12
11.31020736694336 -16.1082649230957 13
11.31020736694336 -16.1082649230957 14
11.31020736694336 -16.1082649230957 15
11.31020736694336 -16.1082649230957 16
11.31020736694336 -16.1082649230957 17
11.31020736694336 -16.1082649230957 18
11.31020736694336 -16.1082649230957 19
11.31020736694336 -16.1082649230957 20
11.31020736694336 -16.1082649230957 21
11.31020736694336 -16.1082649230957 22
11.31020736694336 -16.1082649230957 23
11.31020736694336 -16.1082649230957 24
11.31020736694336 -16.1082649230957 25
11.31020736694336 -16.1082649230957 26
12.31020736694336 -16.1082649230957 0
12.31020736694336 -16.1082649230957 0
12.31020736694336 -16.1082649230957 1
12.31020736694336 -16.1082649230957 2
12.31020736694336 -16.1082649230957 3
12.31020736694336 -16.1082649230957 4
12.31020736694336 -16.1082649230957 5
12.31020736694336 -16.1082649230957 6
12.31020736694336 -16.1082649230957 7
12.31020736694336 -16.1082649230957 8
12.31020736694336 -16.1082649230957 9
12.31020736694336 -16.1082649230957 10
12.31020736694336 -16.1082649230957 11
12.31020736694336 -16.1082649230957 12
12.31020736694336 -16.1082649230957 13
12.31020736694336 -16.1082649230957 14
12.31020736694336 -16.1082649230957 15
12.31020736694336 -16.1082649230957 16
12.31020736694336 -16.1082649230957 17
12.31020736694336 -16.1082649230957 18
12.31020736694336 -16.1082649230957 19
12.31020736694336 -16.1082649230957 20
12.31020736694336 -16.1082649230957 21
12.31020736694336 -16.1082649230957 22
12.31020736694336 -16.1082649230957 23
12.31020736694336 -16.1082649230957 24
12.31020736694336 -16.1082649230957 25
12.31020736694336 -16.1082649230957 26
12.31020736694336 -16.1082649230957 27
13.31020736694336 -16.1082649230957 1.702587127685547
13.31020736694336 -16.1082649230957 0
13.31020736694336 -16.1082649230957 1
13.31020736694336 -16.1082649230957 2
13.31020736694336 -16.1082649230957 3
13.31020736694336 -16.1082649230957 4
13.31020736694336 -16.1082649230957 5
13.31020736694336 -16.1082649230957 6
13.31020736694336 -16.1082649230957 7
13.31020736694336 -16.1082649230957 8
13.31020736694336 -16.1082649230957 9
13.31020736694336 -16.1082649230957 10
13.31020736694336 -16.1082649230957 11
13.31020736694336 -16.1082649230957 12
13.31020736694336 -16.1082649230957 13
13.31020736694336 -16.1082649230957 14
13.31020736694336 -16.1082649230957 15
13.31020736694336 -16.1082649230957 16
13.31020736694336 -16.1082649230957 17
13.31020736694336 -16.1082649230957 18
13.31020736694336 -16.1082649230957 19
13.31020736694336 -16.1082649230957 20
13.31020736694336 -16.1082649230957 21
13.31020736694336 -16.1082649230957 22
13.31020736694336 -16.1082649230957 23
13.31020736694336 -16.1082649230957 24
13.31020736694336 -16.1082649230957 25
13.31020736694336 -16.1082649230957 26
13.31020736694336 -16.1082649230957 27
14.31020736694336 -16.1082649230957 0
15.31020736694336 -16.1082649230957 0
16.31020736694336 -16.1082649230957 0
17.31020736694336 -16.1082649230957 0
18.31020736694336 -16.1082649230957 0
19.31020736694336 -16.1082649230957 0
20.31020736694336 -16.1082649230957 0
21.31020736694336 -16.1082649230957 0
22.31020736694336 -16.1082649230957 0
23.31020736694336 -16.1082649230957 0
24.31020736694336 -16.1082649230957 0
25.31020736694336 -16.1082649230957 0
26.31020736694336 -16.1082649230957 0
27.31020736694336 -16.1082649230957 0
28.31020736694336 -16.1082649230957 0
29.31020736694336 -16.1082649230957 0
30.31020736694336 -16.1082649230957 0
30.31020736694336 -16.1082649230957 0
30.31020736694336 -16.1082649230957 1
30.31020736694336 -16.1082649230957 2
30.31020736694336 -16.1082649230957 3
30.31020736694336 -16.1082649230957 4
30.31020736694336 -16.1082649230957 5
-33.68979263305664 -15.1082649230957 1.691883087158203
-32.68979263305664 -15.1082649230957 1.690944671630859
-31.68979263305664 -15.1082649230957 1.690406799316406
-30.68979263305664 -15.1082649230957 1.67791748046875
-29.68979263305664 -15.1082649230957 1.688404083251953
-28.68979263305664 -15.1082649230957 1.691799163818359
-27.68979263305664 -15.1082649230957 1.683376312255859
-26.68979263305664 -15.1082649230957 1.69171142578125
-25.68979263305664 -15.1082649230957 1.684532165527344
-24.68979263305664 -15.1082649230957 1.670818328857422
-23.68979263305664 -15.1082649230957 1.667594909667969
-22.68979263305664 -15.1082649230957 1.683933258056641
-21.68979263305664 -15.1082649230957 1.700653076171875
-20.68979263305664 -15.1082649230957 1.706066131591797
-19.68979263305664 -15.1082649230957 1.702175140380859
-18.68979263305664 -15.1082649230957 1.70025634765625
-17.68979263305664 -15.1082649230957 1.697845458984375
-16.68979263305664 -15.1082649230957 1.711074829101563
-15.68979263305664 -15.1082649230957 1.670669555664063
-14.68979263305664 -15.1082649230957 1.689807891845703
-13.68979263305664 -15.1082649230957 1.66015625
-12.68979263305664 -15.1082649230957 1.684867858886719
-11.68979263305664 -15.1082649230957 1.660701751708984
-10.68979263305664 -15.1082649230957 1.675853729248047
-9.689792633056641 -15.1082649230957 1.681171417236328
-8.689792633056641 -15.1082649230957 1.681632995605469
-7.689792633056641 -15.1082649230957 1.679985046386719
-6.689792633056641 -15.1082649230957 1.688461303710938
-5.689792633056641 -15.1082649230957 1.700481414794922
-4.689792633056641 -15.1082649230957 1.690143585205078
-3.689792633056641 -15.1082649230957 1.678050994873047
-2.689792633056641 -15.1082649230957 1.6746826171875
-1.689792633056641 -15.1082649230957 1.670089721679688
-1.689792633056641 -15.1082649230957 0
-1.689792633056641 -15.1082649230957 1
-1.689792633056641 -15.1082649230957 2
-1.689792633056641 -15.1082649230957 3
-1.689792633056641 -15.1082649230957 4
-1.689792633056641 -15.1082649230957 5
-1.689792633056641 -15.1082649230957 6
-1.689792633056641 -15.1082649230957 7
-1.689792633056641 -15.1082649230957 8
-1.689792633056641 -15.1082649230957 9
-1.689792633056641 -15.1082649230957 10
-1.689792633056641 -15.1082649230957 11
-1.689792633056641 -15.1082649230957 12
-1.689792633056641 -15.1082649230957 13
-1.689792633056641 -15.1082649230957 14
-1.689792633056641 -15.1082649230957 15
-1.689792633056641 -15.1082649230957 16
-1.689792633056641 -15.1082649230957 17
-1.689792633056641 -15.1082649230957 18
-1.689792633056641 -15.1082649230957 19
-1.689792633056641 -15.1082649230957 20
-1.689792633056641 -15.1082649230957 21
-1.689792633056641 -15.1082649230957 22
-1.689792633056641 -15.1082649230957 23
-1.689792633056641 -15.1082649230957 24
-1.689792633056641 -15.1082649230957 25
-1.689792633056641 -15.1082649230957 26
-0.6897926330566406 -15.1082649230957 0
-0.6897926330566406 -15.1082649230957 0
-0.6897926330566406 -15.1082649230957 1
-0.6897926330566406 -15.1082649230957 2
-0.6897926330566406 -15.1082649230957 3
-0.6897926330566406 -15.1082649230957 4
-0.6897926330566406 -15.1082649230957 5
-0.6897926330566406 -15.1082649230957 6
-0.6897926330566406 -15.1082649230957 7
-0.6897926330566406 -15.1082649230957 8
-0.6897926330566406 -15.1082649230957 9
-0.6897926330566406 -15.1082649230957 10
-0.6897926330566406 -15.1082649230957 11
-0.6897926330566406 -15.1082649230957 12
-0.6897926330566406 -15.1082649230957 13
-0.6897926330566406 -15.1082649230957 14
-0.6897926330566406 -15.1082649230957 15
-0.6897926330566406 -15.1082649230957 16
-0.6897926330566406 -15.1082649230957 17
-0.6897926330566406 -15.1082649230957 18
-0.6897926330566406 -15.1082649230957 19
-0.6897926330566406 -15.1082649230957 20
-0.6897926330566406 -15.1082649230957 21
-0.6897926330566406 -15.1082649230957 22
-0.6897926330566406 -15.1082649230957 23
-0.6897926330566406 -15.1082649230957 24
-0.6897926330566406 -15.1082649230957 25
-0.6897926330566406 -15.1082649230957 26
0.3102073669433594 -15.1082649230957 28.76833915710449
0.3102073669433594 -15.1082649230957 0
0.3102073669433594 -15.1082649230957 1
0.3102073669433594 -15.1082649230957 2
0.3102073669433594 -15.1082649230957 3
0.3102073669433594 -15.1082649230957 4
0.3102073669433594 -15.1082649230957 5
0.3102073669433594 -15.1082649230957 6
0.3102073669433594 -15.1082649230957 7
0.3102073669433594 -15.1082649230957 8
0.3102073669433594 -15.1082649230957 9
0.3102073669433594 -15.1082649230957 10
0.3102073669433594 -15.1082649230957 11
0.3102073669433594 -15.1082649230957 12
0.3102073669433594 -15.1082649230957 13
0.3102073669433594 -15.1082649230957 14
0.3102073669433594 -15.1082649230957 15
0.3102073669433594 -15.1082649230957 16
0.3102073669433594 -15.1082649230957 17
0.3102073669433594 -15.1082649230957 18
0.3102073669433594 -15.1082649230957 19
0.3102073669433594 -15.1082649230957 20
0.3102073669433594 -15.1082649230957 21
0.3102073669433594 -15.1082649230957 22
0.3102073669433594 -15.1082649230957 23
0.3102073669433594 -15.1082649230957 24
0.3102073669433594 -15.1082649230957 25
0.3102073669433594 -15.1082649230957 26
0.3102073669433594 -15.1082649230957 27
1.310207366943359 -15.1082649230957 0
1.310207366943359 -15.1082649230957 0
1.310207366943359 -15.1082649230957 1
1.310207366943359 -15.1082649230957 2
1.310207366943359 -15.1082649230957 3
1.310207366943359 -15.1082649230957 4
1.310207366943359 -15.1082649230957 5
1.310207366943359 -15.1082649230957 6
1.310207366943359 -15.1082649230957 7
1.310207366943359 -15.1082649230957 8
1.310207366943359 -15.1082649230957 9
1.310207366943359 -15.1082649230957 10
1.310207366943359 -15.1082649230957 11
1.310207366943359 -15.1082649230957 12
1.310207366943359 -15.1082649230957 13
1.310207366943359 -15.1082649230957 14
1.310207366943359 -15.1082649230957 15
1.310207366943359 -15.1082649230957 16
1.310207366943359 -15.1082649230957 17
1.310207366943359 -15.1082649230957 18
1.310207366943359 -15.1082649230957 19
1.310207366943359 -15.1082649230957 20
1.310207366943359 -15.1082649230957 21
1.310207366943359 -15.1082649230957 22
1.310207366943359 -15.1082649230957 23
1.310207366943359 -15.1082649230957 24
1.310207366943359 -15.1082649230957 25
1.310207366943359 -15.1082649230957 26
1.310207366943359 -15.1082649230957 27
1.310207366943359 -15.1082649230957 28
2.310207366943359 -15.1082649230957 2.539112091064453
2.310207366943359 -15.1082649230957 0
2.310207366943359 -15.1082649230957 1
2.310207366943359 -15.1082649230957 2
2.310207366943359 -15.1082649230957 3
2.310207366943359 -15.1082649230957 4
2.310207366943359 -15.1082649230957 5
2.310207366943359 -15.1082649230957 6
2.310207366943359 -15.1082649230957 7
2.310207366943359 -15.1082649230957 8
2.310207366943359 -15.1082649230957 9
2.310207366943359 -15.1082649230957 10
2.310207366943359 -15.1082649230957 11
2.310207366943359 -15.1082649230957 12
2.310207366943359 -15.1082649230957 13
2.310207366943359 -15.1082649230957 14
2.310207366943359 -15.1082649230957 15
2.310207366943359 -15.1082649230957 16
2.310207366943359 -15.1082649230957 17
2.310207366943359 -15.1082649230957 18
2.310207366943359 -15.1082649230957 19
2.310207366943359 -15.1082649230957 20
2.310207366943359 -15.1082649230957 21
2.310207366943359 -15.1082649230957 22
2.310207366943359 -15.1082649230957 23
2.310207366943359 -15.1082649230957 24
2.310207366943359 -15.1082649230957 25
2.310207366943359 -15.1082649230957 26
2.310207366943359 -15.1082649230957 27
2.310207366943359 -15.1082649230957 28
2.310207366943359 -15.1082649230957 29
2.310207366943359 -15.1082649230957 30
3.310207366943359 -15.1082649230957 0
3.310207366943359 -15.1082649230957 0
3.310207366943359 -15.1082649230957 1
3.310207366943359 -15.1082649230957 2
3.310207366943359 -15.1082649230957 3
3.310207366943359 -15.1082649230957 4
3.310207366943359 -15.1082649230957 5
3.310207366943359 -15.1082649230957 6
3.310207366943359 -15.1082649230957 7
3.310207366943359 -15.1082649230957 8
3.310207366943359 -15.1082649230957 9
3.310207366943359 -15.1082649230957 10
3.310207366943359 -15.1082649230957 11
3.310207366943359 -15.1082649230957 12
3.310207366943359 -15.1082649230957 13
3.310207366943359 -15.1082649230957 14
3.310207366943359 -15.1082649230957 15
3.310207366943359 -15.1082649230957 16
3.310207366943359 -15.1082649230957 17
3.310207366943359 -15.1082649230957 18
3.310207366943359 -15.1082649230957 19
3.310207366943359 -15.1082649230957 20
3.310207366943359 -15.1082649230957 21
3.310207366943359 -15.1082649230957 22
3.310207366943359 -15.1082649230957 23
3.310207366943359 -15.1082649230957 24
3.310207366943359 -15.1082649230957 25
3.310207366943359 -15.1082649230957 26
3.310207366943359 -15.1082649230957 27
3.310207366943359 -15.1082649230957 28
3.310207366943359 -15.1082649230957 29
3.310207366943359 -15.1082649230957 30
3.310207366943359 -15.1082649230957 31
3.310207366943359 -15.1082649230957 32
4.310207366943359 -15.1082649230957 2.163394927978516
4.310207366943359 -15.1082649230957 0
4.310207366943359 -15.1082649230957 1
4.310207366943359 -15.1082649230957 2
4.310207366943359 -15.1082649230957 3
4.310207366943359 -15.1082649230957 4
4.310207366943359 -15.1082649230957 5
4.310207366943359 -15.1082649230957 6
4.310207366943359 -15.1082649230957 7
4.310207366943359 -15.1082649230957 8
4.310207366943359 -15.1082649230957 9
4.310207366943359 -15.1082649230957 10
4.310207366943359 -15.1082649230957 11
4.310207366943359 -15.1082649230957 12
4.310207366943359 -15.1082649230957 13
4.310207366943359 -15.1082649230957 14
4.310207366943359 -15.1082649230957 15
4.310207366943359 -15.1082649230957 16
4.310207366943359 -15.1082649230957 17
4.310207366943359 -15.1082649230957 18
4.310207366943359 -15.1082649230957 19
4.310207366943359 -15.1082649230957 20
4.310207366943359 -15.1082649230957 21
4.310207366943359 -15.1082649230957 22
4.310207366943359 -15.1082649230957 23
4.310207366943359 -15.1082649230957 24
4.310207366943359 -15.1082649230957 25
4.310207366943359 -15.1082649230957 26
4.310207366943359 -15.1082649230957 27
4.310207366943359 -15.1082649230957 28
4.310207366943359 -15.1082649230957 29
4.310207366943359 -15.1082649230957 30
4.310207366943359 -15.1082649230957 31
4.310207366943359 -15.1082649230957 32
4.310207366943359 -15.1082649230957 33
5.310207366943359 -15.1082649230957 0
5.310207366943359 -15.1082649230957 0
5.310207366943359 -15.1082649230957 1
5.310207366943359 -15.1082649230957 2
5.310207366943359 -15.1082649230957 3
5.310207366943359 -15.1082649230957 4
5.310207366943359 -15.1082649230957 5
5.310207366943359 -15.1082649230957 6
5.310207366943359 -15.1082649230957 7
5.310207366943359 -15.1082649230957 8
5.310207366943359 -15.1082649230957 9
5.310207366943359 -15.1082649230957 10
5.310207366943359 -15.1082649230957 11
5.310207366943359 -15.1082649230957 12
5.310207366943359 -15.1082649230957 13
5.310207366943359 -15.1082649230957 14
5.310207366943359 -15.1082649230957 15
